ply
format ascii 1.0
element vertex 638
property float x
property float y
property float z
property uchar red
property uchar green
property uchar blue
end_header
-0.9742445315291461 -0.171731591970513 -0.0007344538302397558 226 245 239
-0.9729928660137535 -0.18404205739365098 -0.0005631610150713197 94 122 125
-0.9728284035266759 -0.18449729460278178 -0.0005570991112183134 95 124 166
-0.9736251167237018 -0.18102667560552413 -0.0006016128895964505 51 57 55
-0.9728550831668148 -0.18555772735468665 -0.0005447836039839026 63 88 142
-0.9728368750900589 -0.18487892245985663 -0.0005526643273891111 85 111 168
-0.9747541358058531 -0.15882928815931965 -0.0009304550771445238 159 222 255
-0.9740901115831141 -0.16511949214949231 -0.0008346287078917987 160 223 254
-0.9744308285616861 -0.15838646692263414 -0.0009366827300820194 160 225 255
-0.9745063462780296 -0.17646863809956223 -0.0006649177729680307 223 241 241
-0.9741726903513893 -0.16912844124127555 -0.0007725192081646932 160 223 254
-0.9741125014687115 -0.1648102599353056 -0.0008389709836781871 160 225 255
-0.9742249037794826 -0.16972221865111675 -0.000763306459254479 165 224 255
-0.9742065765149627 -0.16322143189289548 -0.0008631454893866655 159 222 255
-0.9741413201061592 -0.16541357737886128 -0.0008294112632733971 159 222 253
-0.9741413201061592 -0.16541357737886128 -0.0008294112632733971 159 222 253
-0.9743767406435256 -0.1616145888759202 -0.0008878957376515744 158 223 255
-0.9741548765921078 -0.1667244004681175 -0.000808769349272654 160 223 254
-0.9730782451818764 -0.18437138376953963 -0.0005584208138202806 94 123 167
-0.9736519769934782 -0.18197728069502755 -0.000589624745311483 72 103 147
-0.9746632291623148 -0.1585825999159571 -0.0009317055031021419 150 221 251
-0.9742124945038011 -0.1636864403644482 -0.0008557527412761056 160 220 254
-0.9742124945038011 -0.1636864403644482 -0.0008557527412761056 160 220 254
-0.9743529353724646 -0.16222799244282318 -0.0008780508722932117 154 220 252
-0.9730425711804778 -0.18472539163430224 -0.0005544740931667597 46 88 126
-0.9742206777368921 -0.16496807615014347 -0.000835642682732351 159 222 255
-0.9739780447549359 -0.179489674324392 -0.0006216339412734841 124 140 176
-0.9739780447549359 -0.179489674324392 -0.0006216339412734841 124 140 176
-0.9744134721237038 -0.16199380216533657 -0.0008810408402316253 152 218 252
-0.9743578971889468 -0.1700082444279358 -0.0007581510120830878 145 175 247
-0.9745517558106628 -0.17680257471388997 -0.0006592648795392093 224 239 236
-0.9743576752365906 -0.16950796261755421 -0.0007653324862852209 161 224 255
-0.9743568126125712 -0.16310407819056916 -0.000863397228920018 154 220 254
-0.9743224700232829 -0.16355358545390053 -0.000856683578742688 158 221 255
-0.9743145940228849 -0.16391663954584165 -0.0008509612646463896 158 221 255
-0.9736425445354046 -0.18269165828873896 -0.0005798782329810735 67 105 150
-0.9730706391925202 -0.18557582110393303 -0.0005447554655300289 64 92 140
-0.9731819841153838 -0.18737644406363294 -0.0005249932012994507 86 75 89
-0.9744474317723915 -0.16233130047001418 -0.000874890819855076 157 221 255
-0.9745327324034156 -0.16146391185609546 -0.0008878931610693645 158 221 255
-0.9743771874413873 -0.16366928870009548 -0.0008543268604455576 155 221 255
-0.9744921457261589 -0.1707764228040061 -0.0007457857900595848 203 213 204
-0.9743169573850806 -0.1655277751017506 -0.0008255363799138668 156 222 254
-0.974376750714383 -0.1638547029970716 -0.0008512563151099546 152 220 255
-0.9743759097714436 -0.16419682009454342 -0.0008460053810550169 155 221 255
-0.9745502364367459 -0.16184780994958053 -0.0008814599825202722 157 221 255
-0.9734585441453394 -0.18363950041011576 -0.0005678423198967663 90 118 166
-0.9732722419018229 -0.18441981147756037 -0.0005577554189251253 65 91 140
-0.9731452937683363 -0.18516992967981089 -0.0005491775860388595 51 73 114
-0.9744483601213255 -0.16902734470007783 -0.0007716092014637328 156 222 254
-0.9745333570536212 -0.17012757892477015 -0.0007554449003499818 110 102 123
-0.9742236655816826 -0.18052279592044787 -0.0006079799755211657 148 167 182
-0.9746963792382392 -0.16121429982276125 -0.0008904542340291297 156 222 255
-0.9746306198516467 -0.16160845392294348 -0.0008843250203073505 156 220 255
-0.9744380760186313 -0.16532814619498076 -0.000827474983116979 158 218 255
-0.9745215029997942 -0.1693758942368993 -0.0007659431774407653 160 220 255
-0.9744700828496771 -0.16668873912106227 -0.0008064823378034349 152 217 255
-0.9747581585729724 -0.1613795360076314 -0.000886628502222092 154 220 254
-0.9733213863347007 -0.18719428709933203 -0.0005267836067681086 80 74 86
-0.9744672263388711 -0.1656247069787827 -0.0008217767714506341 155 217 255
-0.9745060731642058 -0.1673672485994298 -0.0007957772486215022 155 219 255
-0.9744985348438866 -0.16507559548463735 -0.0008305736499876267 151 216 255
-0.9745403151418047 -0.1671956242790018 -0.0007979940969421086 152 217 255
-0.9746306980974165 -0.1629692425447775 -0.0008618455404413433 154 218 254
-0.9747390771304719 -0.17076247715297777 -0.0007446524123779462 226 244 246
-0.9745676464770947 -0.1652089672193269 -0.0008278325425907734 151 216 254
-0.9740841728889857 -0.18188680962514628 -0.0005900369846221856 73 105 143
-0.9750184981814056 -0.1606463706198631 -0.0008962070548590433 151 217 252
-0.9749848881378234 -0.1767348589435415 -0.0006593301655521186 221 239 249
-0.9734355771883809 -0.18705691915098246 -0.0005283934626511569 164 181 171
-0.9736655242415797 -0.18394005583084996 -0.0005635730502306042 53 73 126
-0.9745003900560314 -0.1809268510545187 -0.0006025285510489137 173 182 177
-0.9745929821768984 -0.16612520823117582 -0.0008130382340903671 150 215 253
-0.974976005235995 -0.17223890371194367 -0.0007229396798210233 231 243 241
-0.9744993162003712 -0.18003984312802784 -0.0006135479163331472 141 162 179
-0.9746594509021215 -0.16699087618501957 -0.0007998454437608801 147 214 255
-0.9734764316620033 -0.18501562046275927 -0.0005509092019560214 53 75 86
-0.9736819024389989 -0.1838144812321399 -0.0005651885991587456 46 74 114
-0.9747011022778567 -0.16805034099398022 -0.000783834438182329 148 213 255
-0.9748865170826466 -0.16158777366228536 -0.0008808378669170001 148 217 255
-0.9740373846077904 -0.1829424860789645 -0.0005764746361231167 65 108 153
-0.9749418813791084 -0.17148225038546772 -0.0007332931967884621 235 247 247
-0.9750230074634487 -0.16098681150025448 -0.0008896157456306089 152 217 255
-0.973635926650624 -0.18424685123039164 -0.0005598708784330405 90 94 123
-0.973635926650624 -0.18424685123039164 -0.0005598708784330405 90 94 123
-0.975238618763805 -0.15977457442902088 -0.0009070463340171485 153 217 255
-0.9736480001937496 -0.18408189162056723 -0.0005618428633580527 58 81 123
-0.9736480001937496 -0.18408189162056723 -0.0005618428633580527 58 81 123
-0.9735943322593114 -0.187354640572941 -0.0005250858647498242 193 206 196
-0.9749794469547926 -0.17113296545766019 -0.0007380411191995557 231 247 247
-0.9747558678126622 -0.16523657209456308 -0.0008253276928570897 145 214 255
-0.9747558678126622 -0.16523657209456308 -0.0008253276928570897 145 214 255
-0.974754650502855 -0.1650146931005105 -0.0008286402223258625 142 213 255
-0.9747833306993076 -0.16745540272372353 -0.0007913431389982777 140 211 255
-0.9753852386305527 -0.16002060314336672 -0.0009017588087209647 153 218 255
-0.9753852386305527 -0.16002060314336672 -0.0009017588087209647 153 218 255
-0.9749256709665052 -0.1667692077180786 -0.0008011677524807475 145 209 255
-0.9746988532664504 -0.18064284276816558 -0.0006058960726458429 86 91 94
-0.9740932467321756 -0.18337709240193473 -0.0005709239193124685 78 102 150
-0.9737170770497405 -0.18456659385828422 -0.0005559151587323688 115 145 173
-0.9749242179013663 -0.16285971356339984 -0.0008596457234857335 145 213 252
-0.9749242179013663 -0.16285971356339984 -0.0008596457234857335 145 213 252
-0.973714204207413 -0.18711244618699874 -0.0005278280913109465 196 217 210
-0.9748692785453346 -0.16770741833719688 -0.0007876742092797469 149 213 255
-0.9748656122393345 -0.16799232078356102 -0.00078313096641401 140 208 253
-0.9748738580591835 -0.16713555928341522 -0.0007957676500624575 140 211 253
-0.9749412254665186 -0.1693798208863703 -0.0007625699340415514 149 207 255
-0.9751247944437115 -0.17153815506584302 -0.0007315470049245817 227 242 245
-0.9737106435877491 -0.18684798473431516 -0.000530493039927761 201 222 215
-0.9737010523613607 -0.18542830368132482 -0.0005459861963252542 54 69 92
-0.974908860565815 -0.1655915470802282 -0.0008182406475192817 144 213 255
-0.9749220524583528 -0.16746043823537504 -0.0007904801171308138 137 210 253
-0.9749257407130703 -0.16676922934626745 -0.0008005657681250018 144 211 254
-0.9749350330580429 -0.16695498967081537 -0.0007978053252763263 138 211 254
-0.9749350330580429 -0.16695498967081537 -0.0007978053252763263 138 211 254
-0.9751719442532973 -0.16158440679546462 -0.0008769886416453165 152 217 255
-0.9749619558425517 -0.16528499825657608 -0.0008224211616346672 143 212 253
-0.9749624932976405 -0.16495710791630774 -0.0008270198633815462 145 214 255
-0.9753436838478367 -0.17674465220844018 -0.0006578870375150158 160 171 157
-0.9752504557062139 -0.17159208473464743 -0.0007296341306722903 223 243 244
-0.9752277148586488 -0.17144234733486352 -0.0007318762893747564 228 244 244
-0.9755001300293606 -0.15867771234678923 -0.0009169886499669691 156 222 255
-0.9739252743307864 -0.18407218636953238 -0.0005616803245590636 141 173 184
-0.9739252743307864 -0.18407218636953238 -0.0005616803245590636 141 173 184
-0.9749413035046212 -0.16937982021306455 -0.0007618958163553009 129 139 201
-0.9739335726902932 -0.1842679914635684 -0.0005593534201957231 51 61 60
-0.9753210751900117 -0.17189556254027835 -0.0007249700019663209 226 245 249
-0.9744550792156628 -0.18262856245945736 -0.0005800481255492301 72 109 161
-0.9744550792156628 -0.18262856245945736 -0.0005800481255492301 72 109 161
-0.9738458526010605 -0.18523772449919138 -0.0005481503602340147 138 168 179
-0.9755583389933435 -0.1589772644282078 -0.0009115846836702283 155 219 254
-0.9750703569233959 -0.1666059036654012 -0.0008014069405019877 145 214 255
-0.9750703569233959 -0.1666059036654012 -0.0008014069405019877 145 214 255
-0.9753278835061215 -0.16127386626864518 -0.0008793160142137653 153 219 254
-0.9751233512318146 -0.1678008757077886 -0.0007835786732349818 136 210 255
-0.9751160419660753 -0.16746454419404477 -0.0007885293307322552 141 212 255
-0.9751136845342431 -0.166413895649262 -0.0008040746509171343 145 212 254
-0.97441516821216 -0.183467789231451 -0.000569461280721271 70 106 156
-0.9757610511508417 -0.17651031169555728 -0.000661076445469401 99 91 89
-0.9756584017724307 -0.1588724311294826 -0.0009118368372613238 157 221 255
-0.9756584017724307 -0.1588724311294826 -0.0009118368372613238 157 221 255
-0.9739777549197234 -0.18593032831057393 -0.0005407125305167533 158 184 197
-0.9739777549197234 -0.18593032831057393 -0.0005407125305167533 158 184 197
-0.9745749196395318 -0.18233194034479847 -0.0005825150484831158 88 116 156
-0.9752299009735623 -0.16844257102296065 -0.000773497666540636 137 212 252
-0.9756542207553955 -0.16055645960636075 -0.0008883977220038579 153 221 255
-0.9740331698354404 -0.18617983444929603 -0.0005375852486906072 74 108 153
-0.9752205552619222 -0.16671908504645877 -0.0007984942040464626 143 210 253
-0.9752941426027643 -0.1692102673794347 -0.0007621785794805731 112 132 195
-0.9741487499619363 -0.1842074291399434 -0.0005601667769100224 157 181 193
-0.9752528795042 -0.16541735478718267 -0.0008172541176175532 149 212 253
-0.9755943380443896 -0.17210681712940984 -0.0007204880932514045 228 246 250
-0.9755077823259757 -0.16140590721326606 -0.0008747457452107505 155 221 255
-0.9758738049889156 -0.1580330696784098 -0.000920784706227067 157 221 255
-0.9746176073825067 -0.18172253431809984 -0.0005902094870938007 79 116 158
-0.9741697099655363 -0.18686176660823775 -0.000530258684507487 196 212 211
-0.9753214900310402 -0.16799670449282242 -0.0007789875929475357 144 213 255
-0.9755539837416667 -0.1713482471980077 -0.0007309497525749971 161 172 156
-0.9755862600335642 -0.1610432247460802 -0.0008797330259116286 151 219 254
-0.9760527053852862 -0.17384376827151893 -0.0006969269199765983 228 248 249
-0.9758390047813926 -0.15852249389463333 -0.000913189659963843 154 218 254
-0.9753451472343362 -0.16684463284927145 -0.000795367301129935 149 214 255
-0.976156316011911 -0.17438979879187422 -0.0006894303259282993 153 158 187
-0.9754552198947019 -0.1628778498343679 -0.0008524148013676174 153 218 255
-0.9753775203873158 -0.1651064655671358 -0.0008202050560003126 147 215 254
-0.975579460343306 -0.16151779237803376 -0.0008718212443926081 152 220 255
-0.9741664498404218 -0.18506089359526576 -0.0005498932364702788 97 108 138
-0.9753952051661848 -0.1652584339224895 -0.0008180697235171955 150 215 255
-0.9742638295161201 -0.18711595113221685 -0.0005278225414215734 208 218 210
-0.9755745632544965 -0.16178653968849752 -0.0008676540701880543 153 221 255
-0.9744651875223167 -0.1839430349064223 -0.0005631319474523471 54 80 129
-0.9744651875223167 -0.1839430349064223 -0.0005631319474523471 54 80 129
-0.9760374521068266 -0.15866617956753384 -0.0009095334308007623 158 220 255
-0.9743296594801671 -0.18441574774552247 -0.0005573619460365589 137 161 165
-0.9747755502948949 -0.18187967791233792 -0.0005877799070071328 103 127 165
-0.9762231069219468 -0.1585694566431749 -0.0009111342046482026 157 223 255
-0.9755485985035954 -0.1688307888075344 -0.0007652072168366414 151 200 255
-0.9755485985035954 -0.1688307888075344 -0.0007652072168366414 151 200 255
-0.9755789726584585 -0.16326348143158373 -0.0008460025343176567 146 220 255
-0.9755959663379572 -0.16901291767298643 -0.0007624096272248498 119 120 150
-0.9747870914886203 -0.18202078101442123 -0.0005860548830621511 86 119 162
-0.9744853359881537 -0.18416901675185543 -0.0005601338989812666 145 181 195
-0.9760551147292229 -0.1588427188553087 -0.0009059060473325496 156 220 255
-0.9743127805565832 -0.1848403818663185 -0.0005522920212589443 164 194 202
-0.9756198550989804 -0.16939130213622466 -0.0007570862148223783 133 140 150
-0.9757624560126632 -0.17112895186167235 -0.00073242344972209 80 79 87
-0.9755427524314015 -0.1648344402628257 -0.0008222385253708993 151 216 255
-0.975562774391955 -0.16564511666938783 -0.0008103061125578723 148 215 255
-0.9755729420759283 -0.16678764806644547 -0.0007940250032643972 147 215 254
-0.9758138863787568 -0.1773937799630052 -0.0006468157371002514 53 58 64
-0.9743926839453008 -0.18499240090477945 -0.0005505314168030879 167 186 190
-0.976173013672494 -0.15959400684937605 -0.0008955266977964762 157 222 254
-0.9759016129820568 -0.17198752758343389 -0.000720378619245864 93 99 85
-0.9763967158429654 -0.17477617562763362 -0.0006829051700128286 119 113 89
-0.9757426301023685 -0.16992886838507898 -0.0007487560689301188 76 81 84
-0.9758710716874026 -0.16118628854332634 -0.0008728916496959229 156 222 255
-0.9756385549794163 -0.16643900425613786 -0.0007981027049395521 148 213 253
-0.9756323700597836 -0.16594606511919055 -0.0008053338742302118 145 214 255
-0.9757664321557097 -0.16234578932030266 -0.000856347202705725 154 220 254
-0.9757664321557097 -0.16234578932030266 -0.000856347202705725 154 220 254
-0.9745000042431363 -0.184631839553086 -0.0005545623397741126 134 152 156
-0.9757665984540522 -0.16961472992740523 -0.0007526878565484344 119 124 144
-0.9757012205000564 -0.16391108692362963 -0.0008340466055508787 153 218 255
-0.9757640823469431 -0.16937470858424675 -0.0007560315005900068 139 147 166
-0.9759730953163598 -0.1775107198246871 -0.000644592701889205 26 30 31
-0.9749727052693098 -0.18228232655657323 -0.0005829421000129957 82 115 158
-0.9757659813643241 -0.16303434068182826 -0.0008462447488983032 155 219 254
-0.9757727348569941 -0.16931197969852882 -0.0007570140759331192 140 142 167
-0.9757727348569941 -0.16931197969852882 -0.0007570140759331192 140 142 167
-0.9757368943168405 -0.16872937464055718 -0.0007651007373751925 138 173 237
-0.9758607056827976 -0.17060048086358104 -0.000739055944853174 45 51 63
-0.9758607056827976 -0.17060048086358104 -0.000739055944853174 45 51 63
-0.975812376995915 -0.16283729520080195 -0.0008483889572855243 156 220 255
-0.9747651533095721 -0.1839664975202809 -0.0005625675849726166 56 79 123
-0.9757670872636569 -0.1652092052091762 -0.000814319082126189 153 215 255
-0.9757670872636569 -0.1652092052091762 -0.000814319082126189 153 215 255
-0.976542126445443 -0.1754121764886796 -0.0006734062673504308 157 165 168
-0.9758177485869969 -0.16450523086223162 -0.0008246223147967166 156 220 255
-0.9763545903148858 -0.1598676719636 -0.0008889483083491478 156 223 252
-0.9759279054653875 -0.17027005913271737 -0.0007425002998364621 99 113 113
-0.9759140043752633 -0.16958516180267327 -0.0007522221562746459 111 108 137
-0.9747523514240861 -0.1845149899080761 -0.0005562053709985417 165 193 196
-0.9747917193557775 -0.18427547425381793 -0.000559155789650357 150 180 190
-0.9758575819643724 -0.16857650607373087 -0.0007662097974877761 146 210 255
-0.9758641968536558 -0.1638165931407773 -0.0008334903437605249 149 220 252
-0.9751883957611738 -0.1828965717139161 -0.0005756956418446216 99 134 172
-0.9751883957611738 -0.1828965717139161 -0.0005756956418446216 99 134 172
-0.9751883957611738 -0.1828965717139161 -0.0005756956418446216 99 134 172
-0.9758942832576649 -0.16313449444026715 -0.000842895044246561 153 221 255
-0.9759238240833069 -0.16945136183841455 -0.0007542397272404864 114 118 129
-0.9749326263673408 -0.18372332170716132 -0.0005653651501382742 46 81 123
-0.9746055174725019 -0.18549535030831768 -0.0005451771879360852 90 115 156
-0.9765874864262056 -0.1738964346547704 -0.0006934661980775374 87 92 95
-0.9758861264213751 -0.16476075909555263 -0.0008196659174136017 153 219 254
-0.9760048363705651 -0.16991649438874376 -0.0007472559769007335 111 109 123
-0.976080892325646 -0.17061147910038396 -0.0007371143213101867 46 60 69
-0.9759325368333951 -0.16403625905668548 -0.0008290772959649339 155 221 255
-0.9762180213497239 -0.17178412925934672 -0.0007207901566680133 116 122 136
-0.9751640902488625 -0.1820867300428923 -0.0005845905621225181 86 119 164
-0.9759277072077974 -0.1649814926470858 -0.0008159253216506882 150 220 254
-0.9760747706576561 -0.17020174021579773 -0.0007426239697863241 93 102 107
-0.9761267152697608 -0.1709374217921561 -0.0007323754303661161 80 88 91
-0.9760316330792835 -0.16321501490530127 -0.0008400904289075771 156 220 255
-0.9759930188064978 -0.1646260764449201 -0.0008204653301522956 155 219 255
-0.9761733983542293 -0.17079501801280894 -0.000733850886559875 49 53 62
-0.9761227279274239 -0.1700435011097541 -0.0007442882245715877 48 50 62
-0.9762281261091202 -0.16151442208148165 -0.0008630596210293875 157 222 254
-0.9767931012278641 -0.1754298142158288 -0.0006720883452875485 152 163 159
-0.9751418042135078 -0.18369603848949653 -0.0005655456293350503 68 89 134
-0.9760686434575939 -0.1641115922304249 -0.0008268806282984124 156 220 255
-0.976060739421709 -0.16552294591348193 -0.000807208083860822 154 219 255
-0.976060739421709 -0.16552294591348193 -0.000807208083860822 154 219 255
-0.9760750930061115 -0.16500908620825824 -0.0008141339641664985 145 218 253
-0.9760750930061115 -0.16500908620825824 -0.0008141339641664985 145 218 253
-0.9762849749387593 -0.17102059625600352 -0.000730360129228934 130 142 140
-0.9764179467064786 -0.17742492967966336 -0.0006445098228645155 14 23 20
-0.9761126745195488 -0.16478608607944215 -0.0008164578559022824 154 220 255
-0.975363063529544 -0.1828145415960483 -0.0005758850166139814 89 116 169
-0.9752382969896118 -0.1838298184094908 -0.00056381870158635 64 87 137
-0.9761568847931655 -0.1646774567059047 -0.0008175854572364931 153 219 254
-0.9761568847931655 -0.1646774567059047 -0.0008175854572364931 153 219 254
-0.9761568847931655 -0.1646774567059047 -0.0008175854572364931 153 219 254
-0.9762368768149758 -0.16647514458972976 -0.0007936111649587531 148 217 255
-0.9764697732202546 -0.1719703523967912 -0.0007166971844633658 175 186 188
-0.976433008862812 -0.1611385459049622 -0.0008654032541252464 163 222 254
-0.9762772517875095 -0.16974459810773332 -0.000746967584726808 95 94 108
-0.9763535058054839 -0.16191007479810243 -0.0008549357614873366 159 222 253
-0.9761886293675418 -0.164797177195468 -0.0008154699582832627 154 220 255
-0.9762584406081923 -0.16840206140799754 -0.0007652189498086886 116 116 140
-0.9762370722405251 -0.1664752268395614 -0.0007915924863690693 150 215 255
-0.9762370834583826 -0.1664752315616016 -0.0007914766056506795 150 215 255
-0.9764885559284586 -0.17130637202362967 -0.0007246739513486431 126 126 124
-0.9762650601613475 -0.1659474037444783 -0.0007988034089662003 154 218 255
-0.976273768530547 -0.16664179620451253 -0.0007891389804625448 151 216 255
-0.9764404475060489 -0.17010975049350208 -0.0007410616412879221 90 96 94
-0.9770473888158737 -0.158568579265208 -0.0008973974067638379 157 223 255
-0.9763469778367733 -0.16375883974537725 -0.0008286568000069487 156 222 254
-0.9764437023297857 -0.16997525295708635 -0.0007426990471318021 96 100 109
-0.9766021842145295 -0.17153591515187455 -0.0007220417514432819 147 159 145
-0.9766021842145295 -0.17153591515187455 -0.0007220417514432819 147 159 145
-0.9766021967177957 -0.17153591094168308 -0.0007219053524175039 125 133 122
-0.9763355147722872 -0.16515317937986798 -0.0008088512728561005 146 219 254
-0.9763547384951187 -0.16627527592827684 -0.0007934425228504835 151 216 255
-0.9754675079236701 -0.18384631264710657 -0.000563041051983532 58 85 130
-0.9766376960918319 -0.16125567301840663 -0.0008613569606830609 157 221 255
-0.9763722569993812 -0.1649291027383013 -0.0008112815836503948 151 219 254
-0.9764072888761761 -0.16864525231035715 -0.0007605685112516816 130 126 141
-0.9764939604369057 -0.16950345379322615 -0.0007486668507123033 99 101 113
-0.9763894198113239 -0.16585494247354296 -0.0007987258291425741 151 214 255
-0.975487320172484 -0.18382325346158823 -0.0005634756626576094 54 78 122
-0.9765477380534006 -0.16961890979452582 -0.0007468237583322228 100 100 108
-0.9764208735176755 -0.16545785125014245 -0.0008039524837551298 154 220 255
-0.9764208735176755 -0.16545785125014245 -0.0008039524837551298 154 220 255
-0.9764597129274905 -0.1652623950445476 -0.0008063322026081552 155 219 255
-0.976447517440256 -0.16657366124657505 -0.0007883957196757759 150 217 255
-0.976447517440256 -0.16657366124657505 -0.0007883957196757759 150 217 255
-0.97645972966194 -0.16526240528874792 -0.0008061540110451619 151 219 254
-0.9764471244113163 -0.1657492939362776 -0.0007993144359548606 150 218 255
-0.9756050824049762 -0.18369207634185256 -0.0005648507113751269 52 83 130
-0.9764923975644746 -0.1668136764685224 -0.0007847179674678394 150 218 255
-0.9764923975644746 -0.1668136764685224 -0.0007847179674678394 150 218 255
-0.9766671945386312 -0.16234082773664585 -0.0008449596897519713 155 221 255
-0.9765840155388793 -0.16878442407140754 -0.0007573584106327055 118 121 126
-0.9765264136404812 -0.1664042848847196 -0.0007898804155009248 148 216 255
-0.9768403994143158 -0.17190991982270537 -0.0007154027536277874 149 154 147
-0.976549852710172 -0.16584228767865514 -0.0007973192157572574 148 216 253
-0.976590728012576 -0.16779482309951876 -0.0007709147034801325 145 214 255
-0.976788119652181 -0.16147798221440993 -0.0008562914890690562 153 222 255
-0.9772029014200113 -0.1601592645311384 -0.0008730340006379332 160 223 255
-0.9766583584250869 -0.16840240691255617 -0.0007617608279209025 127 121 131
-0.975792585168372 -0.1825413908351504 -0.0005779740685417568 99 135 183
-0.976730882499513 -0.16954339592338719 -0.0007462033904715937 120 118 131
-0.9755311786582759 -0.18665240664239247 -0.0005323180559908615 135 145 137
-0.9766877418261843 -0.16824461044538586 -0.0007635955107957928 131 125 139
-0.9766845246201846 -0.16467284914503616 -0.000811823881146906 154 218 254
-0.9766845246201846 -0.16467284914503616 -0.000811823881146906 154 218 254
-0.9756050967887215 -0.18369204944245562 -0.0005647196981230821 51 76 117
-0.9768633305447282 -0.16170073554348785 -0.0008512949264141726 156 222 255
-0.9757791743006651 -0.18384021881649507 -0.0005630000674952908 48 80 119
-0.9768073598290511 -0.1696948047925516 -0.000743667751585003 108 111 126
-0.9767282965407572 -0.1672917510746407 -0.0007760565242920094 147 215 252
-0.9755697606223012 -0.1863936682438211 -0.0005348570787846686 71 71 71
-0.9755697606223012 -0.1863936682438211 -0.0005348570787846686 71 71 71
-0.9767315020663611 -0.16500160281945445 -0.0008068138721428109 156 220 255
-0.9767548423536833 -0.16547207336817935 -0.0008002844847154949 155 221 255
-0.9756507516585163 -0.18581144496332017 -0.0005409290669325729 25 38 73
-0.9768006689554795 -0.1652326656412367 -0.0008029396084793851 152 220 255
-0.9769217387779597 -0.168865276864875 -0.0007534248106973792 120 119 137
-0.9760462877936774 -0.18312920668903337 -0.0005707848103055793 88 120 171
-0.9770123118800778 -0.16215836435782086 -0.0008430816872139143 161 221 255
-0.9770123118800778 -0.16215836435782086 -0.0008430816872139143 161 221 255
-0.9768985153251192 -0.1645053607872637 -0.0008115611703832529 155 219 255
-0.9769690387042891 -0.16861446474617928 -0.0007563714439874392 135 141 163
-0.9769643911631863 -0.167524553519973 -0.0007712483517042833 147 215 252
-0.9769261614070338 -0.16536495003201923 -0.0007998389490851248 153 217 252
-0.9770680026253666 -0.17002177566669574 -0.0007373660329331219 84 84 96
-0.9770158645377589 -0.1681751087373612 -0.0007617539281993969 130 127 138
-0.9761073813541586 -0.1837972284677801 -0.0005631787054334789 37 56 114
-0.9769867497240942 -0.1652085375566362 -0.0008012348491771741 152 218 253
-0.9770011055064597 -0.16501073807503322 -0.0008038274537067852 155 221 255
-0.977039931512733 -0.16843887110019048 -0.0007579825988169573 141 143 158
-0.9763298132039181 -0.17901739281170542 -0.0006186977333227853 103 95 110
-0.977047837092677 -0.16552416499280642 -0.0007965387483579959 154 219 255
-0.977047837092677 -0.16552416499280642 -0.0007965387483579959 154 219 255
-0.9761276754546642 -0.18403263760662592 -0.0005603765565365662 36 46 55
-0.9775109930816291 -0.16020385791450503 -0.000865415411027854 159 224 255
-0.9771037057413468 -0.1686345581927482 -0.0007543627183026418 131 133 145
-0.9771547355276288 -0.16303482332810026 -0.0008287885074099839 156 221 253
-0.9762699579336536 -0.18219072643463066 -0.0005810474658613825 29 51 75
-0.9772486334222856 -0.16995023105090276 -0.0007369981539919528 117 107 115
-0.9764278293560555 -0.17895589286247116 -0.0006192300707853431 115 111 128
-0.9774693656163236 -0.16075786844068882 -0.0008575114095166461 157 219 255
-0.9778361344383748 -0.1585104481174608 -0.0008846749699579581 161 221 255
-0.977206601853266 -0.16326386429354942 -0.0008250999484918176 157 221 255
-0.9772876478328558 -0.16924702250237822 -0.0007457144379695779 125 122 139
-0.9772139045477455 -0.16565130212502518 -0.0007931273747491331 153 217 253
-0.9763559628376715 -0.18365361726082857 -0.0005644252621171605 47 66 106
-0.9763559628376715 -0.18365361726082857 -0.0005644252621171605 47 66 106
-0.977236377283689 -0.164690903374734 -0.0008055985475279192 155 219 255
-0.9773104764734192 -0.16311572413604167 -0.0008255639146841262 156 220 255
-0.9773104764734192 -0.16311572413604167 -0.0008255639146841262 156 220 255
-0.9765419472353809 -0.17861344648554384 -0.0006229549512644204 131 119 131
-0.9765667651924154 -0.17876141450207791 -0.0006212494720191927 141 132 149
-0.9772741336281368 -0.16521230102645545 -0.0007981808577578576 154 218 255
-0.9773861601397926 -0.1695364350544126 -0.0007411271495446102 123 112 129
-0.9773247511221664 -0.167218793868672 -0.0007716598829645144 172 184 198
-0.9774673225904044 -0.17066142686293426 -0.0007263066148676809 112 118 134
-0.9774013608158613 -0.16299819181982597 -0.000826312477413967 156 222 255
-0.9774998318586418 -0.1703190151186111 -0.0007304619089026368 124 121 132
-0.9773509747308395 -0.16570049414958518 -0.0007907626983126473 153 218 255
-0.9766187088202266 -0.17919634275968183 -0.0006155212293880571 137 129 150
-0.9766187088202266 -0.17919634275968183 -0.0006155212293880571 137 129 150
-0.9773986527644349 -0.16390845587450875 -0.0008141139595392429 155 221 255
-0.9766043496755821 -0.17934350334340862 -0.0006137080093665439 114 116 128
-0.9774032536179443 -0.1654784545622214 -0.0007934247021047692 152 218 253
-0.977423411562725 -0.16504343336784205 -0.0007988984936673619 153 219 254
-0.9775299037922731 -0.16952630658138876 -0.0007401903264615978 128 124 139
-0.9774431389286157 -0.16823564461559026 -0.0007571347285409605 125 119 133
-0.9776912945497185 -0.16116297569124083 -0.0008482250300523314 159 222 255
-0.9774710502965598 -0.1643411782608256 -0.0008075808328917019 157 221 255
-0.9774710502965598 -0.1643411782608256 -0.0008075808328917019 157 221 255
-0.9765339777572959 -0.18407852677386266 -0.0005593559764227784 23 35 47
-0.9775586918661107 -0.16934710242271672 -0.0007423994569161822 140 122 144
-0.9775194158913013 -0.16835265881455377 -0.0007551912474322152 127 121 135
-0.9775035567433066 -0.16706238799318546 -0.0007719241948097992 131 137 127
-0.9775697277416281 -0.1689161987038996 -0.0007477097825863582 134 132 153
-0.9767408208422401 -0.17913317368672718 -0.0006158954017332647 146 138 161
-0.9777272155875746 -0.17102607121003185 -0.0007208209532563279 111 98 115
-0.9777765696890686 -0.16104963165192743 -0.0008484377353841104 156 222 254
-0.9776275566763102 -0.16987488396093678 -0.0007349903921468732 127 122 142
-0.9775520164186823 -0.16493018782657062 -0.0007991486903920785 150 220 254
-0.9775520164186823 -0.16493018782657062 -0.0007991486903920785 150 220 254
-0.9775545820037748 -0.1658974385402603 -0.0007864620669208987 153 218 255
-0.9775623924481661 -0.16544810184372574 -0.0007922378703385728 154 218 254
-0.9763990250833641 -0.18586827268330283 -0.0005396186566431069 93 91 92
-0.9776013696435139 -0.16425311304566012 -0.0008074127320648388 154 220 255
-0.9776013696435139 -0.16425311304566012 -0.0008074127320648388 154 220 255
-0.9767232671207335 -0.1836487543315813 -0.000564005919377079 26 34 47
-0.97672823415908 -0.18105611841253538 -0.0005928438010425824 95 94 100
-0.97672823415908 -0.18105611841253538 -0.0005928438010425824 95 94 100
-0.9776353192145416 -0.16443050061461564 -0.0008046491339222232 155 219 254
-0.976864711649495 -0.17863839985656818 -0.0006215190102989596 130 115 146
-0.9769274876643989 -0.1873174953676975 -0.0005254979483383206 119 106 115
-0.9776236855822723 -0.16561593183459022 -0.000789314816813512 151 219 254
-0.9768529964057521 -0.17925294069813097 -0.0006140975814020187 131 126 156
-0.9767604621257082 -0.18345771208153408 -0.0005660471848730068 32 34 47
-0.9768819041981808 -0.17894566645636242 -0.0006176307595725902 118 116 138
-0.976480684176922 -0.18565059725397604 -0.0005417902585936936 100 110 109
-0.9776678390798001 -0.1656203451066867 -0.0007888865557295172 150 220 254
-0.9776713961596578 -0.16481643709945598 -0.0007990242136249688 155 221 255
-0.9769994906918701 -0.1782439161030694 -0.0006258776484313817 124 115 136
-0.9769994906918701 -0.1782439161030694 -0.0006258776484313817 124 115 136
-0.9768831513046516 -0.1798573352827362 -0.0006065920505091776 97 93 108
-0.9768695660051819 -0.18000847572683482 -0.0006046569410647795 95 91 108
-0.9777457125351443 -0.16430354197803937 -0.0008050264206660577 155 221 253
-0.9777539252215031 -0.16510742732112446 -0.0007941456804352108 155 219 255
-0.976984535153145 -0.179153156393982 -0.0006148395286769323 113 114 132
-0.9779716117028662 -0.16155435517413283 -0.000838787129406937 154 220 254
-0.97778041866234 -0.16495233851490504 -0.0007962945874605153 151 219 254
-0.97778041866234 -0.16495233851490504 -0.0007962945874605153 151 219 254
-0.977836298265216 -0.16650240672751013 -0.0007760210069318634 155 217 254
-0.9769464728798606 -0.18163425915822332 -0.000585784579415106 80 72 85
-0.9778500884412274 -0.16474668154048866 -0.0007982879698251723 157 220 255
-0.9784915716328364 -0.17380218323079888 -0.0006837998028487124 102 107 127
-0.9778529398828384 -0.16802246187561334 -0.0007562395164466036 108 107 121
-0.9770766179548154 -0.17905050283404342 -0.0006157724367870055 120 114 140
-0.9771260797331903 -0.17834389163672607 -0.0006242258019782223 135 137 160
-0.9770811635718262 -0.1793297836345611 -0.0006124458842551119 109 102 118
-0.9766463428456534 -0.1850233256619497 -0.0005482057062058659 94 87 95
-0.9775119889356486 -0.1602054912474584 -0.0008527747195244132 160 223 255
-0.9771057861606824 -0.1788309716721984 -0.0006183040559434836 123 125 138
-0.9779263300400097 -0.16585339220339443 -0.0007834697618128132 155 221 255
-0.9781339245835156 -0.16179100344309766 -0.0008339981833739603 159 222 253
-0.9772483955176692 -0.17824470463480593 -0.0006250901484489688 127 126 142
-0.9779970901966318 -0.16622158617445693 -0.0007779716818815484 159 219 255
-0.9780021372876213 -0.16612975497709773 -0.0007788233222440456 156 219 254
-0.9772117221270012 -0.17920816402254766 -0.0006135028818387269 131 139 142
-0.9780289082934566 -0.1649727929857519 -0.0007936657504954444 156 220 255
-0.9781662856247763 -0.1702218252605705 -0.0007269684634403434 135 132 151
-0.9780341103116041 -0.16448735737551387 -0.0007995169381387814 158 221 254
-0.9786819959552412 -0.17378106572909316 -0.0006830057352910048 130 138 157
-0.9782320644273045 -0.1616476518777387 -0.000834326790852876 158 221 254
-0.9768731091641895 -0.18583820711354213 -0.0005395120872162853 113 100 117
-0.9771806406168635 -0.18383568399221703 -0.0005612760057478115 55 67 81
-0.978083778939526 -0.1648278107712295 -0.0007946718251211724 157 221 255
-0.9782224829914555 -0.1697594329042957 -0.0007320720076865705 155 147 168
-0.9773256084844468 -0.17883339504831858 -0.0006175617479866464 126 150 162
-0.9773596284424699 -0.1793467148584982 -0.0006113772025355428 92 98 112
-0.9773596284424699 -0.1793467148584982 -0.0006113772025355428 92 98 112
-0.9782534571081388 -0.1661846627756343 -0.0007766879941839713 151 219 254
-0.9769707368271308 -0.18751989102774622 -0.0005225601772112412 141 124 140
-0.9773535363340534 -0.17962149400999078 -0.0006081829060325067 92 95 100
-0.9782051669509391 -0.1635844480444813 -0.0008092841132441159 156 222 254
-0.9774424259423007 -0.17821237811010374 -0.0006247896564335891 129 147 161
-0.97744241326506 -0.1782123980933109 -0.0006249489390953856 123 141 155
-0.9782862954605792 -0.16788732995695388 -0.0007554334900942088 100 94 106
-0.978239416202907 -0.16503047152872632 -0.0007907225458011425 157 222 254
-0.977416952513844 -0.17981936509573287 -0.0006057702556410492 107 122 129
-0.9789632687908765 -0.15875628741650305 -0.0008657846022715721 155 221 253
-0.9774780624337377 -0.17919994908016895 -0.0006126968090629384 99 111 123
-0.9788822315736687 -0.17395435137510978 -0.0006793147175449534 92 92 94
-0.9783176925166572 -0.1681883237495628 -0.0007504717172792003 139 142 151
-0.9783176925166572 -0.1681883237495628 -0.0007504717172792003 139 142 151
-0.9774431002715194 -0.183502520616439 -0.0005645837245737981 98 103 123
-0.9774779744323442 -0.18026394657639586 -0.0006001647694026063 102 113 105
-0.9785308849655414 -0.17084334947874813 -0.000716999607773588 136 133 152
-0.9785308849655414 -0.17084334947874813 -0.000716999607773588 136 133 152
-0.9775126319276711 -0.16020654721286548 -0.0008446084021640297 155 221 253
-0.9783488333433575 -0.16465153192761706 -0.0007940644217760757 160 223 255
-0.9784717022367061 -0.1623757531498621 -0.0008217498546488204 159 222 255
-0.9783694945544131 -0.1653980255692551 -0.0007847077189633559 158 224 255
-0.9784161317192479 -0.16851979104833334 -0.0007455604357351022 136 140 123
-0.9775175299533065 -0.18057826135146018 -0.0005965432972987406 105 105 113
-0.9772026787240693 -0.1858571683406877 -0.000539002349843606 110 102 117
-0.9784760593184578 -0.1629775038995847 -0.0008138417989150085 157 221 255
-0.9785651695404876 -0.16975591725151468 -0.0007296131964335186 151 137 154
-0.9784370800111468 -0.16678593570241265 -0.0007665244242313463 145 159 144
-0.9777248130910096 -0.17812362629976802 -0.0006250255239399268 110 132 143
-0.9791151624525889 -0.17436749769881615 -0.0006733116786182689 165 172 198
-0.9777248258358573 -0.17812360538928065 -0.0006248573704142276 118 129 147
-0.97849801464654 -0.16834088833898528 -0.0007468382388476327 131 137 125
-0.9786783776365746 -0.16237523213090824 -0.0008204880098622893 157 221 255
-0.9786783776365746 -0.16237523213090824 -0.0008204880098622893 157 221 255
-0.978466355356695 -0.16641950948423367 -0.0007709303683908927 123 123 121
-0.9773536154303598 -0.17962135288258563 -0.0006072181326919452 157 162 191
-0.978637075289625 -0.16216948193619826 -0.0008225313417882558 160 225 255
-0.9785189879126329 -0.16707172536793607 -0.0007624716227248072 129 144 141
-0.9785435451154316 -0.16449232345342665 -0.0007940476536416703 154 220 252
-0.978648435465375 -0.1696643112828631 -0.0007301257152430382 148 137 151
-0.9785424829983712 -0.1647181896157066 -0.0007910345738001733 156 221 253
-0.9785424829983712 -0.1647181896157066 -0.0007910345738001733 156 221 253
-0.978640797392929 -0.16270385358285538 -0.0008153856454248261 155 224 255
-0.9777204481922015 -0.1835806786934078 -0.0005631602755234757 118 110 131
-0.977707168513184 -0.18232264068834247 -0.0005766069749476602 132 128 142
-0.9786951132137872 -0.1692452359996556 -0.0007344593250168024 135 136 128
-0.9786401920111485 -0.164360063644393 -0.0007947159303015151 155 224 255
-0.9778479300995393 -0.17880750320686206 -0.0006161226764161551 128 122 148
-0.9786649854612267 -0.16482948537467285 -0.0007887020178541615 158 224 255
-0.9778035401613215 -0.18162648726113742 -0.0005842464535730149 146 151 181
-0.9787529275389367 -0.1629236210759128 -0.0008115163029929438 158 223 255
-0.977485550778231 -0.18591244707991494 -0.000538301248814914 118 108 132
-0.9787995839567462 -0.169725392454784 -0.0007284860645753031 139 137 158
-0.977911431912356 -0.17929441923928896 -0.0006103753010703768 124 116 140
-0.9779622092044014 -0.17820985549049953 -0.0006229439486998534 123 113 140
-0.9775216077120783 -0.18505723859251955 -0.000546896346941774 116 113 134
-0.978718460779395 -0.16589850645549736 -0.0007749192343764219 157 221 255
-0.9778781668376797 -0.1805859720509525 -0.0005956045282648506 78 79 97
-0.9778781668376797 -0.1805859720509525 -0.0005956045282648506 78 79 97
-0.9788864713075235 -0.1702877231271042 -0.0007212522272399813 125 122 129
-0.9788292706579187 -0.1693809570365142 -0.0007319188476098478 170 173 178
-0.9788328022505967 -0.1627793374772776 -0.0008123090181173826 155 221 253
-0.978789333928786 -0.16759520732465566 -0.0007537996389924178 161 165 151
-0.9788143201227048 -0.16418082253243688 -0.0007951399716826045 157 223 255
-0.9788143201227048 -0.16418082253243688 -0.0007951399716826045 157 223 255
-0.9788017788187373 -0.1640101435684452 -0.000797188791917231 158 221 254
-0.9775695297787722 -0.18754075750356183 -0.0005219620032713716 146 122 146
-0.9788237316470859 -0.1661977494493966 -0.0007703526246490836 170 186 173
-0.9779693291426329 -0.1826424530990214 -0.000572723278309198 134 115 137
-0.979461397069431 -0.17450476802293532 -0.0006699175209364332 120 120 144
-0.9788246149916007 -0.16542104208491917 -0.0007797481319991982 160 225 255
-0.9789572032120278 -0.17007325799211073 -0.000722668965263086 123 129 141
-0.9789572032120278 -0.17007325799211073 -0.000722668965263086 123 129 141
-0.9794610968482518 -0.17390403982288827 -0.0006769648513902651 125 120 143
-0.9780196268362947 -0.18041464706078636 -0.0005971798809600932 137 146 153
-0.9790245027075032 -0.17023316610606387 -0.0007208127910345535 137 130 146
-0.978036468347945 -0.18377281171048956 -0.0005606145575224039 117 106 123
-0.9789431761364586 -0.16587122875664798 -0.000773151557945294 153 218 255
-0.9794480807595872 -0.1606741051133579 -0.0008339453508347578 161 221 255
-0.9790033817265056 -0.16476763922166324 -0.0007863698219204067 159 222 255
-0.9781902048513492 -0.18340780468397172 -0.0005643523793154788 120 111 138
-0.9790119238789213 -0.16554567347383492 -0.0007762214023803036 155 221 255
-0.9781892639892209 -0.18359966681746825 -0.0005622247309100094 120 103 137
-0.9791698933579928 -0.1698697219676841 -0.0007236154625496246 107 106 137
-0.9790536017903825 -0.16614259667549075 -0.0007687469200197044 122 137 134
-0.9792302009041222 -0.17022746227543142 -0.0007196074003136093 138 152 179
-0.9791176305948025 -0.16796793503427743 -0.0007464211298510643 129 145 160
-0.9791771195131339 -0.16927039943892358 -0.0007307499830601007 106 123 149
-0.9792084482338188 -0.16952843531895606 -0.0007274406761433266 146 167 198
-0.9773708364906614 -0.18692165893771426 -0.0005267674924861802 100 98 109
-0.9782609450467654 -0.18169055412031648 -0.0005825007333383069 125 134 151
-0.9791231622010322 -0.16584303672022718 -0.0007717391767063086 156 219 255
-0.9797415218495611 -0.17440811395055802 -0.000669350478201587 110 98 110
-0.9793231599485941 -0.17768560844495046 -0.0006291160950251955 114 112 126
-0.9793740730579603 -0.16145519706383313 -0.0008230292162699644 156 220 255
-0.9783723008327494 -0.17958150058142128 -0.0006058534967486512 118 137 144
-0.9783748419666043 -0.17893836054485918 -0.0006130764001641501 109 107 120
-0.9795640095260488 -0.17803997339893377 -0.0006261413769769986 117 111 137
-0.9797668971999239 -0.17418597208940856 -0.0006718883999455152 117 104 122
-0.9792491639724105 -0.16302484218198374 -0.0008046719801635797 158 222 255
-0.9783405739910632 -0.18130679070527309 -0.0005866542962490873 139 154 161
-0.9783419973804168 -0.18151063538283316 -0.0005843145640667035 135 136 156
-0.9784537875382983 -0.17879615277759853 -0.0006147164799161016 107 98 115
-0.9793047702642246 -0.162776588738602 -0.000806995966379308 164 223 255
-0.9792455862034417 -0.16421698569845264 -0.0007901010871963676 159 222 255
-0.9792790380818821 -0.1635748178055495 -0.0007972660999509647 156 222 255
-0.9795487313220862 -0.1609986173762121 -0.0008266809325187093 157 220 255
-0.9799221230179654 -0.16048130932288818 -0.0008334731020663807 159 224 255
-0.9784325799153338 -0.18000007257708484 -0.0006008744508266028 138 143 163
-0.9784196028546192 -0.1833390216233678 -0.0005647075183936639 119 102 121
-0.9784578027869058 -0.18039300641832606 -0.0005964346091754706 130 124 150
-0.980012480508826 -0.16071014581831602 -0.0008309852744902918 160 223 255
-0.9795134403159711 -0.1784957784090678 -0.0006203704079099556 118 104 129
-0.979975206640538 -0.1739611147000086 -0.0006733308469475441 136 126 176
-0.9793511485252069 -0.16459451724070337 -0.0007845886216114434 160 220 254
-0.9785010967206863 -0.18109935139887118 -0.0005884033635398922 67 74 93
-0.9793883037632731 -0.16391489505278814 -0.0007921881222138367 156 221 251
-0.9793502171746127 -0.16593029660369124 -0.0007684796027712845 149 217 252
-0.9793502171746127 -0.16593029660369124 -0.0007684796027712845 149 217 252
-0.9799245119870974 -0.17403012295638776 -0.0006727807001653517 90 62 136
-0.9793955881262301 -0.16790546726607739 -0.000744869085912708 57 92 134
-0.9785129444454617 -0.18373992843105416 -0.0005602194767356917 104 86 110
-0.9786989603327055 -0.17921731924645426 -0.0006090297426207025 130 133 138
-0.9796793715145489 -0.17835932976854552 -0.0006208054233650982 142 125 169
-0.979453444244611 -0.16577094255008132 -0.0007694382754014636 154 220 255
-0.979600006816727 -0.1698615868112753 -0.0007209156975277354 43 51 97
-0.9795410457872927 -0.16439823826121694 -0.0007848814005503577 157 223 255
-0.9802075658808788 -0.1602428324841706 -0.000831835908748861 157 223 255
-0.9802075658808788 -0.1602428324841706 -0.000831835908748861 157 223 255
-0.979582719733589 -0.1675345269053842 -0.0007476071484060601 37 70 101
-0.9797237798485579 -0.1620939198489811 -0.0008106569516164551 160 223 255
-0.979537679071725 -0.16562006006002683 -0.0007702614334211458 155 219 255
-0.9795975031505855 -0.16457964700278085 -0.0007821886695381483 157 221 255
-0.9797795555148637 -0.1706100062808936 -0.0007111181386916334 43 50 105
-0.9787565715003052 -0.18233858872655223 -0.000574551505750504 103 82 123
-0.979775048565471 -0.17043919867340931 -0.0007129375015255747 49 54 96
-0.9788072722860603 -0.1811301753293676 -0.0005874323430688777 91 104 121
-0.9800707221481453 -0.17844149895167546 -0.0006198860716216123 49 50 94
-0.9788767884005131 -0.18018076239219707 -0.0005976857845178578 95 82 128
-0.9797607268862609 -0.16860641010761715 -0.0007338687089970893 52 78 95
-0.9797721337617412 -0.16360595923993257 -0.0007917439810858143 159 219 253
-0.9801191147876739 -0.1721347801590749 -0.0006926915709728837 38 48 99
-0.9799201118196617 -0.17063080789832163 -0.0007100754235537103 48 46 96
-0.9797316215929848 -0.1650564814437396 -0.0007750190078428605 153 222 255
-0.9799330575467161 -0.17033107601380423 -0.0007132484333441322 53 51 65
-0.9797650213147535 -0.16521164941628275 -0.0007728144935953534 155 221 255
-0.9797743831964724 -0.16578847528954438 -0.0007661499185601076 146 213 255
-0.9797962902806219 -0.16670959701776794 -0.0007552881693327265 93 130 148
-0.9790077439953555 -0.18135725815383472 -0.0005844886727440651 27 49 90
-0.9790150243670477 -0.17996942706651398 -0.0005995704839191151 56 52 103
-0.9790150243670477 -0.17996942706651398 -0.0005995704839191151 56 52 103
-0.9798585624365704 -0.1679956727405762 -0.0007401784035591365 67 81 84
-0.9798585624365704 -0.1679956727405762 -0.0007401784035591365 67 81 84
-0.9798773792079895 -0.16790824755205655 -0.0007411187497063144 61 86 82
-0.9798773792079895 -0.16790824755205655 -0.0007411187497063144 61 86 82
-0.9798599511320805 -0.16379843468591376 -0.0007880998275905447 156 221 249
-0.9798640750634582 -0.1669530674135709 -0.0007518660659045247 72 87 116
-0.9800691658148128 -0.17056822215709455 -0.0007098736015061941 74 98 134
-0.979077353477297 -0.18029530670865584 -0.0005959245655159424 60 64 101
-0.979077353477297 -0.18029530670865584 -0.0005959245655159424 60 64 101
-0.9801484509769256 -0.17119943767038323 -0.0007026880072553167 64 81 88
-0.9800477925154939 -0.17040027548879028 -0.0007116226178242328 77 99 122
-0.9799915079860928 -0.1628591480814517 -0.0007980442345435313 158 223 255
-0.9799396978551412 -0.1673034249147043 -0.0007472884777851912 79 107 110
-0.9799546168534743 -0.16747722713232166 -0.0007451482855164854 82 105 113
-0.9806063974726283 -0.15999277280214652 -0.0008296353457157555 158 222 255
-0.9800474821977088 -0.16272375740325792 -0.0007991864190782602 157 222 254
-0.9800714382498726 -0.1625971020675644 -0.0008007563536479578 159 222 255
-0.9800857913028961 -0.1698880670064473 -0.0007169819978364064 90 108 108
-0.9801219891183133 -0.1702116456273023 -0.0007131792402825308 95 121 120
-0.98004455432177 -0.16900887001654127 -0.000727048082830742 99 121 144
-0.9799892293844212 -0.16771689833316894 -0.0007421276453512876 91 117 132
-0.9802779676218056 -0.16135020465249478 -0.0008142917131632843 159 222 255
-0.9800407672980777 -0.16851088539120526 -0.0007327753729693562 90 115 137
-0.9801997984166176 -0.17075063750223646 -0.0007066997778037284 100 107 125
-0.980081108234952 -0.1693020014069348 -0.0007236039409706957 99 125 152
-0.979264036397694 -0.18305916928966795 -0.000566417531593607 52 55 98
-0.9792142902142699 -0.18012856249182302 -0.0005973562085036162 51 47 97
-0.9800662677542583 -0.1637469035606262 -0.0007871727243963132 158 222 255
-0.9801594729928514 -0.16247852541681915 -0.000801297895504982 158 221 254
-0.9801594729928514 -0.16247852541681915 -0.000801297895504982 158 221 254
-0.9800201479690346 -0.1657714028605553 -0.0007640287112497075 147 217 253
-0.9800201479690346 -0.1657714028605553 -0.0007640287112497075 147 217 253
-0.9800762096747065 -0.16755975095745437 -0.0007431587060147451 77 94 124
-0.9803715364888659 -0.1711786143181398 -0.0007012847917786273 89 108 106
-0.9792240526354098 -0.1823116879824726 -0.0005738914305436887 37 44 99
-0.979411367758139 -0.18291471641822707 -0.0005677105763485428 46 46 100
-0.9792795117600964 -0.18091284323361906 -0.0005884574113083267 44 61 105
-0.980094980024856 -0.16669596287205546 -0.0007528693513735989 105 142 186
