ply
format ascii 1.0
element vertex 703
property float x
property float y
property float z
property uchar red
property uchar green
property uchar blue
end_header
-1.3556170822337947 1.5555187387995255 6.889275099874334 139 149 143
-1.218449531901018 1.6134894881945196 6.7016945816843965 114 98 86
-1.2012576604806222 1.6115266328279985 6.705413634116858 115 99 100
-1.1911002852929058 1.6491608890929033 6.694270221015671 111 73 41
-1.2267314121121748 1.724243720030997 6.785314090665099 70 55 46
-1.2455495598811324 1.7263024148168564 6.8376463187311485 147 123 95
-1.1462730893226303 1.7093447643050461 6.765231736125139 156 136 105
-1.1735189679758273 1.9779524166329332 6.926105420677002 224 131 62
-1.1005455691893178 1.850246035705373 6.791888382835158 70 43 46
-0.9103494042038732 1.6409220673751437 6.732131119532912 99 48 46
-0.9759256845767217 1.4784384879112993 7.022395910033414 174 186 180
-1.013894200794148 1.442962151697103 7.127746742509005 177 174 166
-0.9651425486471349 1.401388535538479 7.117014479730404 199 205 194
-0.754497891897665 1.617605767405087 6.7460816139111826 131 108 122
-0.7372163194020934 1.7279515937919017 6.769105019897786 153 147 124
-0.9029215505839173 1.4006317607616499 7.114465901839675 185 194 197
-0.7613228550204405 1.5885174706719263 6.870761626568299 176 166 166
-0.850603095136946 1.4225806509177146 7.119957356424056 59 57 49
-0.6110492792435442 1.6503389739883625 6.724150895482695 96 50 49
-0.6063690912258041 1.6332654975763066 6.7345016435308995 202 171 180
-0.771115445652215 1.461363922168052 7.130776880555391 25 23 22
-1.0565800728463008 1.0674084802609844 7.7954917171227285 82 119 147
-1.029885627477729 1.1527828217840894 7.785089299921664 101 133 162
-0.7202165241718348 1.462593752808423 7.152227277814399 25 27 21
-0.5290584171900902 1.6248273686166887 6.755321790936964 134 105 121
-0.5268323261122422 1.7240630542372561 6.767850158542102 95 70 74
-0.7094568560862989 1.3959742968965638 7.156583069380858 79 66 52
-0.8142376855827986 1.31460044335514 7.4765972872922655 238 242 230
-0.44671258086461146 1.688514760181364 6.757083900102343 106 49 48
-0.807039827685393 1.2972926927832575 7.569693435889996 231 240 227
-0.4930891156421116 1.5720320906751593 6.895075068738223 52 52 46
-0.42792452208983944 1.7463194425526225 6.770498976147027 154 107 86
-0.6119379374342726 1.394972304819615 7.220655049487868 52 49 41
-0.8723931625989114 0.9680153677410215 7.879432462236747 94 131 153
-0.859263994330219 0.9858360015798151 7.875372137316393 52 53 49
-0.5602378908857157 1.3952805662678915 7.258104763076472 59 38 37
-1.2008902361710392 -0.4079235139293193 8.593827018912847 92 78 89
-0.5399869131800242 1.3509986121919197 7.346146660360699 113 112 108
-1.1177375789226995 -0.4014984410408782 8.569444653429679 52 48 54
-1.116290911886287 -0.9026831164089255 8.528239723660539 51 49 61
-0.5144169579785556 1.3636551150726377 7.339261157421864 158 174 167
-0.2439264917437858 1.7201230094126951 6.753164604873865 154 127 101
-0.226381427714966 1.6454384904782535 6.730738567536389 189 182 189
-0.6746360055032651 0.8098944897295639 7.96253106723449 136 157 154
-0.458489641578844 1.3307345025003616 7.51483829390807 102 90 72
-0.6545639041091538 0.835809079680211 7.965020793073283 133 150 146
-0.3769576321210848 1.5129897851620215 7.3516743483184355 145 126 123
-0.6432052863741521 0.8592666126702518 7.961202377018903 87 88 54
-0.6432052863741521 0.8592666126702518 7.961202377018903 87 88 54
-0.6413627675448691 0.834498296208476 8.00087238536261 68 83 45
-0.11104627378390815 1.8477877680520818 6.759503956863164 116 111 96
-0.5940901162747201 0.907677891083572 7.926647846739825 124 140 129
-0.11398443261773149 1.6042937984927224 6.775748278635402 45 38 45
-0.16851964346737938 1.5726633863541863 6.922899453999215 49 49 43
-0.17093256096698164 1.5573184020118904 6.935102221075254 179 174 176
-0.5776117737151756 0.877856565478927 7.96580343645115 99 102 70
-0.07510706489247303 1.8673567608435577 6.771186594668755 139 122 83
-0.056598050036708356 1.8587458801266454 6.778439805846924 73 47 41
-0.024926223609075676 1.6520894078263257 6.7251474276395875 153 128 132
-0.02255533289047288 1.6031245998601107 6.744099322049867 94 93 95
-0.0065601660627178015 1.6912914629222662 6.716772462487968 129 113 96
-0.7829936404697572 -1.1572477643518122 8.500178179832652 117 106 114
0.02036936061556543 1.6286755302747824 6.705161950288489 160 138 140
0.012038874670393383 1.8969970553079114 6.784440828653646 72 43 52
0.00034180135378111424 1.6073795558925408 6.786089149108281 70 56 62
0.010327804181047688 1.7967143130905725 6.8153973885881385 173 148 108
-0.3963520490075065 -0.06547879168790402 7.836982896352659 77 56 59
0.08229693717480749 1.7523231140527553 6.759488061011085 89 69 68
-0.40149594775240544 0.12043620105050755 7.9060478789671 170 163 138
-0.3927777378040835 0.09669814138287017 7.8893115320322345 124 116 99
-0.40942195977839174 -0.4586803744334213 7.902094004720628 167 178 192
-0.28924482130757717 0.03978436558833412 7.821820190041277 80 84 78
0.11152365634582845 1.5979548248240214 6.927876935325553 175 165 148
-0.2488901556082406 -0.31176075600324765 7.758400854997249 147 153 172
-0.2466864634040024 -0.31237700189505185 7.7541225715296775 147 153 172
-0.2292118873618197 -0.10763192768431785 7.763805251391609 116 128 130
-0.26858527148709643 0.29863696552414526 7.9545265429301795 131 139 129
-0.22600208882389344 0.10305240619838764 7.81724730916741 100 101 85
0.21196273455772954 1.6530315492472973 6.733014714975112 196 180 187
0.15557753726291898 1.5932564625211045 6.928211169085701 144 126 127
-0.21288560006543591 0.13394221046714408 7.823338029809802 113 115 103
-0.2099929599606266 0.2750589898093843 7.924988957691471 98 94 75
-0.2099929599606266 0.2750589898093843 7.924988957691471 98 94 75
-0.20288299775226756 -0.5015919483166729 7.810081305500835 179 191 195
-0.14589216430908783 -0.16832513972206084 7.72773128326211 170 173 164
-0.16317337312033794 0.28108228575734656 7.888411475566734 119 136 125
-0.14976647865469897 -0.3710986382389017 7.754939460175733 107 104 119
-0.12917690880965013 -0.13331554605845075 7.737501285919931 169 174 159
-0.13362613766023718 0.0844772791364148 7.79168142910054 65 66 62
-0.14720188042041285 0.2515080290623079 7.87437882290847 145 143 125
-0.2002099275196237 -0.6693007405644545 7.915034494203144 175 190 209
-0.13651661154525266 0.2588893197960632 7.880242807038855 92 93 77
-0.13769620348434103 -0.4347571249734393 7.785667985896241 172 182 192
-0.10236920144737457 -0.12120388352146132 7.729194618466881 95 95 83
-0.10310112050413404 -0.17777557492843823 7.731794860095594 176 175 165
-0.10310112050413404 -0.17777557492843823 7.731794860095594 176 175 165
-0.09234622058670384 -0.06886444713235815 7.740398590420686 105 112 99
-0.1409362257695036 -0.6203772161764144 7.862589819691038 170 182 192
-0.11641440882564093 -0.5143873083964485 7.802429588372713 164 176 186
-0.08526849635952358 0.14255632479949668 7.806048092801684 159 162 147
-0.09731342561881134 0.2479448684934877 7.863602900939357 82 89 74
-0.09731342561881134 0.2479448684934877 7.863602900939357 82 89 74
-0.06193843953067833 -0.08697436760191038 7.7203617389902455 129 129 111
-0.15882611828786614 -0.7174373432258779 7.944924451222182 127 129 129
0.24972521795080815 1.341861195935523 6.976469044371751 164 120 89
0.22788524901211682 1.1909115928875542 7.027382629397489 216 182 152
-0.10791748405775937 0.3678299728071464 7.969391330610032 80 83 67
0.21948974541213817 1.10428037180896 7.04897227517426 90 49 46
-0.3199274255012245 -1.1292544925755137 8.483259319887596 101 101 107
-0.08428626641785986 0.9920170752218199 8.051860675125912 134 138 133
-0.04360781175317108 -0.3484212445854346 7.720369146550974 145 157 169
-0.11516792592494345 -0.7306416740289211 7.959091844620677 143 146 137
-0.013946256134173473 -0.3604139988600976 7.741212608556009 158 170 176
-0.030676455986960824 -0.5267258244695746 7.783686418825884 161 171 188
0.010409459300602306 -0.05750673541415592 7.728634623195865 166 168 156
0.006301357397305589 0.16821903185243095 7.805484916950284 139 138 117
-0.028032813942563697 0.3821585142787794 7.964903613052894 70 65 40
-0.026585240604816703 -0.6260492459417188 7.8301024077584485 170 185 211
0.0199817291908633 -0.3995288656776401 7.738749264494705 147 155 162
0.025935958693447763 0.26712567250460767 7.853303724349321 58 62 63
0.34057109747428826 1.574984236807877 7.04170720897143 71 50 58
0.024392517669861533 -0.5122725333332205 7.767543564597658 99 97 86
0.3099509134396293 1.1331571699104945 7.086319030599684 92 46 29
0.31137287609304254 1.0414807136139943 7.105264147754976 222 218 207
0.06112400219628558 -0.2893613227371059 7.733195518525939 88 89 99
0.07461043184191817 -0.17583284590891912 7.71261808697679 175 177 158
0.03397965462566178 0.3935654348710963 7.960968682490958 57 56 46
0.36283824408937443 1.4559525956361372 7.029403356201988 66 29 25
0.3538871538337206 1.3463790499486383 7.045730385443324 88 82 69
0.03043835421408948 -0.6186026360708544 7.829536712984826 173 190 203
0.03746612391100988 0.4176859954774896 7.9706906002340006 88 97 94
0.08849548445482308 -0.30936956007926353 7.7326262110450275 171 177 166
-0.1006490528623907 -0.9880240288555167 8.270336278102072 57 50 41
0.10277583291220699 0.07726089459231467 7.765668099193217 127 129 117
0.11009265435432315 -0.09187562837901547 7.728814281878952 112 118 107
0.10108655565734834 -0.01906375896941475 7.773643998300164 165 164 150
0.11983444746683979 -0.17218096548821532 7.725802957887785 63 53 46
0.36613496884599717 1.0861386635702297 7.102587611720787 173 126 88
0.11631408532255932 0.2443939844132765 7.842527250755405 69 65 70
0.05571564927470416 -0.7415510511453086 7.917768932063273 237 247 230
0.4029007908275133 1.436225574855302 7.075234887038246 162 117 90
0.3965654104858901 1.3355600208856369 7.088184769856787 52 40 36
0.37857139142902213 1.1371789282547733 7.142601805667535 161 125 85
0.15336932069142423 0.19665328332822804 7.827725822468224 63 59 70
0.1547260392372637 0.21847734300256613 7.82830747029903 104 110 117
0.17741179065900348 0.0545291320340913 7.7676630993680655 167 166 140
-0.03927267751097965 -1.20198095724244 8.3281527977545 173 188 190
0.17957350368826133 0.19151648692539353 7.832907051640241 64 48 55
0.19008953206994178 -0.2956951887611526 7.727259532818056 87 79 79
0.19008953206994178 -0.2956951887611526 7.727259532818056 87 79 79
0.12350909827286538 -0.7214787494974749 7.905977701678077 158 156 132
0.16769078218210495 -0.5610899594222928 7.799470675346605 228 236 219
0.20239621398845312 0.161087525804829 7.813377885285826 94 92 68
0.12528923103550696 -0.7618490091282196 7.936914533817479 241 248 227
0.18658969333851252 -0.550758580050678 7.79142064629931 117 109 110
0.18658969333851252 -0.550758580050678 7.79142064629931 117 109 110
0.207810815092298 -0.41235090639378896 7.749605991448458 205 218 202
0.14773781659684923 -0.7407280011769604 7.9175601972023335 233 243 227
0.23888598336906314 -0.20012254982070043 7.765608398242723 76 76 62
0.24275357505621076 -0.23647891260104523 7.7482849655436725 108 133 137
0.24275357505621076 -0.23647891260104523 7.7482849655436725 108 133 137
0.23815202528509333 -0.4164409343273794 7.753825846996129 202 209 194
0.2539009896403925 -0.3304710686826093 7.739355373491706 141 144 148
0.2551492138867183 -0.3469651550509184 7.746818076265681 85 85 79
0.6261906985105348 1.6731482745706683 6.741888964066642 94 75 90
0.2612893515637856 -0.3964123823078885 7.773883476730404 187 196 183
0.21352681926568332 -0.7565031551053983 7.962520697851643 225 235 218
0.5218214490439277 1.5117809808332117 7.218868853419825 36 30 23
0.2014112119932476 -0.8391610668388467 8.039867415495094 207 223 212
0.22800713159197825 -0.769486995633966 7.965144269624257 234 249 235
0.18412946424080692 0.7053422609173237 8.385446937604526 67 78 70
0.24537276486331921 -0.7408355429567623 7.939210554721312 235 243 226
0.3169324837240164 0.14962863071435384 7.844360176616857 128 127 113
0.5462729737050577 1.562678153312837 7.258181595817991 133 122 118
0.3332590475411124 -0.2859377793218068 7.76089342076543 72 76 71
0.331552223119051 0.1427404078025117 7.84344730904013 62 51 37
0.34921142695831725 1.1897975195120576 7.985263370919789 106 116 100
0.3463271890305776 -0.06650018904120494 7.783096479216715 113 128 107
0.5452115723070754 1.4324473938705893 7.291090027329942 69 30 22
0.6538342969065368 1.6228615778706024 6.925477945578036 95 78 92
0.5413561988756592 1.5159656898350031 7.336664747227523 148 155 148
0.5592191939546939 1.4253348033295554 7.258761175428491 61 33 22
0.30010079816544855 -0.6796414294056332 7.9024022479687 149 153 142
0.5636457928327716 1.4191378722754764 7.2783778752833195 124 63 43
0.38064256599332286 -0.21151981832731212 7.766423298330194 168 179 163
0.7409217258119412 1.7073892813062455 6.726034792717383 183 158 178
0.39502474084977585 0.0012330670230861812 7.81738820950792 175 168 141
0.3785837206853667 0.2420099918710354 7.927750939066139 82 59 44
0.37313069769834456 -0.5809232499310593 7.84780032903206 206 226 213
0.37313069769834456 -0.5809232499310593 7.84780032903206 206 226 213
0.32685415645196064 -0.784566163144484 8.02399230680022 224 240 223
0.413913606568512 -0.4209779671996594 7.808577154731892 109 108 94
0.5970668270479529 1.502260106833676 7.454541892433525 148 154 137
0.34877846675463653 -0.8175060557501347 8.052384225735649 208 232 220
0.34877846675463653 -0.8175060557501347 8.052384225735649 208 232 220
0.4322797712017761 -0.4076226531488743 7.810529126511441 183 197 185
0.4982697212366229 1.3900296616347383 7.876061599587855 157 155 145
0.4412577610180554 -0.38534463827827764 7.802274813224953 194 213 194
0.4527624647107843 -0.048385190479683794 7.844626784449575 94 86 79
0.5975822344931455 1.454475856272282 7.549811451546069 167 164 156
0.46955276128280654 -0.08481235565616811 7.831961179016132 173 181 158
0.466582675336755 0.03691098762009386 7.872353328188333 144 133 113
0.47893760064439583 0.020618383750795333 7.8621819245315265 182 171 143
0.46827230471208914 0.2645285457635283 7.985675476367755 90 71 56
0.4687693488529038 0.3326945331376081 8.06489577293108 70 57 43
0.6313346833020481 1.4084015856133754 7.604921221021472 213 219 202
0.5058467967311905 0.05845369901064107 7.887673777516318 190 176 148
0.5079756927157301 0.1310536642123704 7.921600243746404 177 170 145
0.4649982208315008 -0.6680729686897022 7.960096374442202 152 145 126
0.5206661818694559 -0.07576739287540771 7.8457086473549795 167 165 147
0.5145394621088826 -0.28407804407109416 7.843579241097135 201 203 184
0.4723778561290172 -0.6792572132092809 7.971411901951728 237 248 232
0.5157403374161349 0.23776453469534717 7.970897998811975 172 149 117
0.4818271927696285 -0.663228603892183 7.965434729711158 236 236 222
0.4905399955651905 -0.633697289609887 7.944281190886561 130 138 127
0.5358553576428228 0.09507979257075469 7.926245714692167 192 178 142
0.8165401322745224 1.7748575689921133 7.089279348434302 204 195 191
0.49598443313725393 -0.7057915876748553 8.01645871704682 229 238 217
0.7336556181100227 1.5364184731165247 7.45558611545771 91 72 87
0.8232176688087572 1.7287640108477014 7.113724662826105 175 140 126
0.4954311357943219 -0.7792857465863833 8.12249854760461 158 164 147
0.551013806535825 -0.5464251798376565 7.931134180300767 218 228 212
0.5625746109546794 -0.4852285681022395 7.920386349748371 83 76 67
0.803914983309368 1.602707475310508 7.382671494428587 78 60 61
0.8038326513820401 1.5970986881687887 7.391809309185956 64 43 52
0.6012524759662673 -0.4752659810865586 7.929590279645943 205 221 204
0.6153814165954731 -0.09619805793426393 7.948211574993438 75 56 51
0.6153814165954731 -0.09619805793426393 7.948211574993438 75 56 51
0.6159148817159105 -0.37196069712888374 7.916469774448195 178 193 172
0.6343008925561094 -0.21930480683676554 7.910210244432581 93 96 87
0.6343008925561094 -0.21930480683676554 7.910210244432581 93 96 87
0.6374195330576491 -0.2861151756693568 7.9135070506048155 159 176 165
0.6374195330576491 -0.2861151756693568 7.9135070506048155 159 176 165
0.8072266739341558 1.5463344202889027 7.531867256650462 129 144 140
0.8169722871938981 1.5644819126275817 7.515283093772477 83 78 80
0.7091214952674418 0.049945219295500665 8.04856484647351 172 160 132
0.7370383412353329 0.07066843544144671 8.101901818442352 164 151 125
0.7433061348665905 -0.1311516839564876 8.043790481291982 70 69 55
0.7444768520977799 -0.3364777411155108 8.033262973116772 73 78 69
0.7295491689371145 -0.5090026683748857 8.085274601431001 182 191 188
0.7206961116374908 -0.5413688355245749 8.133278009184984 171 185 183
0.7539688473935249 -0.3026610666025287 8.032092311680188 89 97 87
0.7629444810957935 -0.1221339191830853 8.067602517907316 105 105 111
0.751260475157469 -0.4732631529597828 8.07900301065857 160 181 172
0.7792754044679712 -0.018135300191207494 8.08665585061311 174 162 138
0.7851560513706941 -0.17285056323204104 8.072165418479585 121 131 131
0.7851560513706941 -0.17285056323204104 8.072165418479585 121 131 131
0.7696157216498786 0.162933461226708 8.22294789435477 183 131 91
0.6819680887701254 -1.1722349966842354 8.468108081464683 75 74 83
0.8641780833822498 1.4506539045346283 8.141364359838466 134 133 135
0.848359362498928 -0.1830766827977694 8.17282470034097 152 149 134
0.8406949437726481 -0.36537461292253537 8.197136207616069 66 63 58
0.786435623958938 -0.6014466147883883 8.457882208168426 55 57 58
0.856989121307297 -0.35154509419205315 8.203002761412199 107 114 131
0.8046389373545677 -1.08816283285557 8.473681495897745 86 91 112
0.9135700860842201 1.4729496943425184 8.56701403701112 111 74 66
0.879567197670068 -0.22021275960572606 8.380288846766478 119 126 135
-12.984911016827526 -1.3602811607179457 15.228040759353718 254 235 214
-1.3214357056031516 1.9176721000849648 6.732551480794128 111 59 29
-1.2460619738850642 1.5795759873379684 6.658825402252482 202 200 189
-1.3052083893857616 1.5723571972056756 6.894180646019345 164 158 153
-1.0158403711976054 1.7104793427789318 6.737905624649756 163 153 119
-0.7168540083699618 1.6813026558024347 6.595090383434155 167 155 127
-0.8007593846672246 1.8517352821132538 6.774561070924572 98 60 56
-0.8736655714185333 1.4640104668533653 7.0410829407569375 174 186 180
-0.730759691979916 1.5676879038674896 6.8932251336033845 64 72 62
-0.8954862907335401 1.3866165240177606 7.121295930927946 107 107 101
-0.5546325419669569 1.6501749457322472 6.707745770236062 101 57 50
-0.7961415487598921 1.5219351462151534 7.080503299532877 29 28 30
-0.5288320143231922 1.8286907804051127 6.768429902836338 147 119 108
-0.561665043365102 1.5577639133614534 6.888544301295984 69 63 58
-0.4458644607568789 1.7438500227358016 6.752766234221043 152 116 100
-0.6734116153152329 1.4469563939536594 7.174071528182518 44 41 36
-0.4724325323238698 1.5468323073979242 6.887635883673116 164 153 145
-0.46844454185928236 1.5831440044515614 6.905109124729928 160 151 137
-0.6624860225771921 1.3676540278874585 7.199940797930283 115 118 123
-0.3307578671332582 1.6317976931097007 6.755258014705074 105 96 122
-0.38962070454105274 1.5910610871741757 6.891265775684899 171 153 146
-0.40652475315462744 1.5801452494861477 6.934947200705416 58 52 53
-0.5894997683186387 1.3964650068321434 7.219547957897278 137 143 142
-0.6039776576854134 1.3363174831945381 7.287081338038008 246 246 230
-0.20833826001950595 1.743078495193237 6.744870258545561 164 152 128
-0.152351878261986 1.8362984751120264 6.722429902113767 144 135 108
-0.14354957974932286 1.6319766898416792 6.698952044197199 97 74 79
-0.14306599296085956 1.7361721575069615 6.715182657976086 117 115 104
-0.517550664827066 1.3744189727284608 7.295115236048948 77 63 65
-0.13708197230791266 1.83254886130187 6.740157020431067 92 89 81
-0.4056773588405941 1.5398013043338719 7.151846847153525 159 139 151
-0.1205109838860949 1.6383019594855552 6.704361870732207 167 137 142
-0.101171270477753 1.5990956208950537 6.753528816997896 42 45 43
-0.47774583377671914 1.4913260104838906 7.378324482086004 19 17 16
-0.45221727596695005 1.5075900496027919 7.386137684559898 88 89 87
-0.03478047216205732 1.7602164796366637 6.72294704541541 73 41 22
-0.019529432704021885 1.6020367130130178 6.738747100978985 94 93 95
-0.04597457832351099 1.5931888484040535 6.79216258389387 100 96 91
-0.788583564662629 0.8958174198723294 7.971866158511458 142 154 156
-0.5123959469432449 1.1856817012504004 7.572650242076485 31 34 32
-1.1988322561475813 -0.7711751731609036 8.554334409398042 104 91 93
0.028838293495924292 1.626673268442791 6.753347002273532 163 151 141
-0.41811370731404174 1.3633159699215711 7.499100572638078 60 29 32
-1.1991078929649115 -1.165350947697568 8.524291571755551 94 90 102
-0.03460677348214514 1.570785564925372 6.87548734372272 75 60 64
0.039588085032703134 1.9049378087054767 6.807980332796967 76 57 54
0.008049388564252464 1.568863352908773 6.88737620110553 142 130 120
-0.6503035606660846 0.8339287743165221 8.016980562239015 73 80 43
-0.6503035606660846 0.8339287743165221 8.016980562239015 73 80 43
0.14676540066803637 1.64177495070855 6.70973665929521 202 171 174
-0.06075740273409356 1.5584051144547388 7.121594920501384 170 153 144
0.16871484222495586 1.6319860086686402 6.731223352563086 137 111 124
0.19444731048670014 1.8636827456201441 6.783064804706363 189 153 115
-0.5558635188488306 -0.0762199874258985 7.987118778706279 150 140 140
-0.5105200110827693 -0.2045058454497097 7.9493803013399775 133 137 155
-0.5728488886448422 -0.46231454961992235 8.05896584687517 89 79 91
-0.7787755879481626 0.8080591480435922 8.713009351166564 56 57 71
-0.4634235368314419 0.3289397058485351 8.100762546060366 74 62 62
-0.36326577195631266 0.9908294370746196 8.0223353008723 146 150 114
0.23261902743636292 1.589195525339478 6.975864025578035 106 103 88
-0.3092865234888055 -0.24025595895079782 7.779236475778254 101 103 113
-0.3092865234888055 -0.24025595895079782 7.779236475778254 101 103 113
-0.27426880460326897 0.9253747057596238 8.054841079359216 50 61 69
0.25209492551730506 1.0981342680378263 7.054893667591175 185 149 111
0.4654740414464338 1.6632379718874737 6.725856928015472 156 134 153
-0.16103779862712467 -0.3298213866367815 7.696315077030866 78 90 102
-0.14588863935357974 -0.09219481980049708 7.7260307381997615 125 141 153
0.26000669712382896 1.0374657899332587 7.100447510743383 169 136 110
0.298219048926379 1.1201883756683801 7.049255905048693 99 71 47
-0.14112442783556645 -0.3445312906228409 7.724682511163139 89 98 107
0.3119109376264955 1.144354649698969 7.066360218941242 154 126 91
0.3728324035490619 1.5654528130510033 7.0819695134030525 98 94 99
-0.05156624909188765 -0.16233539780395562 7.712738446386936 95 95 79
-0.06292123799961598 0.12553443946204884 7.7800853556430996 40 32 32
-0.1110484231366045 -0.5705652808232271 7.8097434286447625 229 225 220
0.35979001092628043 1.0998095413350324 7.109891029089793 109 53 34
0.3707254307513101 1.137054725248382 7.114183983788558 120 96 68
-0.013840292393356782 0.0535668610100249 7.748965094088144 158 153 138
0.4178341983934196 1.5644463408662 7.117235000236804 59 51 52
0.3720827870691851 1.0955333117569923 7.141379195490085 79 40 31
-0.010730706906934907 0.14335850412728554 7.800090684506502 166 172 155
0.0069504337067014185 0.19012660182126662 7.814188080260824 73 81 71
0.427336678753886 1.3402244727560988 7.125840036901969 70 67 53
-0.03099043437927871 0.3603899394091892 7.942441962279352 132 139 118
0.6435883493813696 1.6818459264420673 6.737073757418112 155 134 143
0.44783740444484393 1.3733155003298438 7.10264109222261 118 78 66
0.006311103255963628 -0.5269487212212248 7.761949161608325 165 174 183
0.0522443230731277 1.1611863972223901 7.9421485707610815 177 205 199
0.026508273848862906 0.2834595394900677 7.883029616897504 62 65 56
0.4338701865758781 1.1677227214753119 7.162133949774488 199 163 133
0.06283933282686133 1.169929262023784 7.9652792518377264 70 71 51
0.037884379189867305 0.3023317847154507 7.896081845377086 50 54 43
0.466974276616118 1.2406519095043 7.157900631841399 182 177 144
0.09139005581952306 -0.30793794517055 7.726653166817319 180 178 167
0.12448395285849703 0.055428627626498056 7.754762571795648 162 168 145
-0.041839206507503654 -0.7910041823095502 7.985324863582189 224 241 227
0.09328287686962185 -0.5150121126062931 7.762495317931333 192 199 192
0.1486421008784008 -0.19587078722308793 7.734837723800288 145 148 133
0.09919514467657395 1.0683392386761184 8.055423312672763 58 72 44
-0.162456194435754 -0.9280762961917747 8.30859496150103 29 27 19
0.5017456193524029 1.2881826492470154 7.2554447359822305 124 91 76
0.656327561985225 1.6130744990160275 6.9767640184108375 97 80 94
0.017820838100263903 -0.8129248972800964 7.992104034990008 198 207 194
0.18221469355482597 -0.26548064778301284 7.725012110826901 86 92 87
0.1679826080314439 0.2086685888874539 7.83343561054248 107 112 115
0.7559107486346566 1.9757437585421198 6.850844478279366 254 159 86
0.6519630537835902 1.606229170256231 7.063758287253707 99 85 91
0.6519630537835902 1.606229170256231 7.063758287253707 99 85 91
0.21052473315833176 -0.4104109430084591 7.7437433846019506 217 223 206
0.20538287938520292 1.1463792176832548 8.012369852122733 86 88 52
0.15010785531718676 -0.7064881204392474 7.882331383575212 249 253 242
-0.0070854718104388665 -1.1281551757035084 8.230124625795186 144 130 111
0.28034645714990586 0.17101769095266295 7.835563257966584 77 71 58
0.2931557124692602 0.013333471350598898 7.783285061216539 125 136 120
0.5600703431872233 1.5027074561441425 7.427870145801189 90 82 83
0.21097508968463696 -0.6816352340984387 7.8694635752861 242 243 227
0.033886413523385686 -0.9328244682829199 8.23769006801193 30 31 27
0.3012574754812711 -0.2933134591024064 7.7572178186436895 97 104 124
0.5734976097146544 1.5129802869035522 7.431875486342013 170 175 160
0.3097158554199834 0.08348939423584648 7.814592092434483 145 151 134
0.31793426630014054 -0.04010649892254588 7.7877529583296665 178 176 152
0.31668226573132474 -0.3408968303106543 7.763412347490473 93 104 101
0.176661391096554 -0.8241112990984526 8.013834862158687 230 242 224
0.176661391096554 -0.8241112990984526 8.013834862158687 230 242 224
0.3131740134933513 1.157083007413985 8.030516100394745 154 180 174
0.31633449619657994 0.17670786184825346 7.866892551776736 129 135 130
0.31405267730871395 -0.43263208162715666 7.778405640911593 208 215 202
0.5640760792281669 1.4826538626216896 7.520553677499765 203 207 195
0.057866613073436754 -0.9420726524435953 8.315568959514149 27 27 27
0.34845891923146877 -0.4059193225399567 7.77259577468529 200 212 200
0.34912401671782656 -0.4067074717787461 7.7712872553571435 192 201 191
0.2113744163216558 1.0601547007467806 8.347689806396213 29 28 24
0.6227955922373676 1.5077143314898782 7.4636624581490505 130 127 119
0.28411660647466835 -0.7229635727859056 7.909598911397323 154 155 151
0.35473231196793376 1.17820600609552 8.085189298875003 103 107 95
0.37514480575318865 -0.36142504221344546 7.781938482944094 169 188 169
0.38787043266564164 -0.24473220319397615 7.772083534174486 186 189 174
0.37722998822277803 0.132944182250948 7.868309237007021 168 162 133
0.7077461811487454 1.5599248121854854 7.328482269050428 155 141 153
0.6272600105523297 1.4727983920059864 7.528460812103886 200 200 188
0.7575171100478839 1.5955451648903292 7.264786504871235 93 76 87
0.4087543148852529 -0.23671095841306522 7.798734559856834 44 51 46
0.40636672751278996 0.06147005449292297 7.861430144100249 165 161 143
0.4034387183754963 -0.4247167524289075 7.7966615350936275 205 220 206
0.8210313011072532 1.7127650429759043 7.16178536316943 149 106 79
0.8210313011072532 1.7127650429759043 7.16178536316943 149 106 79
0.3503408537358854 1.148487911909117 8.200996726918063 190 194 188
0.4339487569758077 1.2361627087280256 8.050545997160913 102 87 55
0.4160478718159099 -0.4607526259542921 7.816407311594208 215 221 204
0.36501248503741446 -0.6857470145657198 7.921836945215707 206 207 197
0.49871326824800066 1.3806846186287554 7.95599233671767 183 195 177
0.45456636465571215 -0.2528753887315547 7.809941416028729 70 63 54
0.4582154622124119 -0.22797229026977814 7.811707053395151 55 56 46
0.4582154622124119 -0.22797229026977814 7.811707053395151 55 56 46
0.4645610264613592 -0.2363215609678853 7.824601568805206 180 197 184
0.2954119982419671 -0.8773557661227148 8.144996218283731 171 187 203
0.4839621037428452 -0.05748088432090971 7.845169359258895 65 49 37
0.4499825287399958 0.2558402275807062 7.991876142352717 128 116 92
0.47852220261361095 0.1373597499211694 7.9162996501303775 170 172 153
0.48830479264443993 0.11613103256871808 7.922389906249255 70 58 34
0.7610206246668764 1.5388781738427137 7.5016602750206225 53 50 59
0.8125133351431849 1.6399488706655514 7.401364434233867 42 27 31
0.4064057199480688 -0.7528209013271633 7.996609878058611 121 122 106
0.496410224684907 0.10198646596098387 7.93315442384621 166 152 130
0.5168307213990377 -0.18168141883971947 7.838241121593128 135 144 134
0.5016334128521613 0.13058529986403283 7.937303268350789 171 169 139
0.7837414570124739 1.5510006308279618 7.492923872894018 65 46 61
0.5177865883509508 0.02502999612081179 7.906607629635355 149 138 110
0.5238478043202779 -0.0530264417444931 7.8800036246480945 173 176 154
0.7959326604742736 1.5574260584049702 7.509125495587588 125 129 134
0.3810732896445684 0.7417765445001576 8.41766162498799 30 22 15
0.5057563819938069 0.2938678947264616 8.051480863101169 115 105 81
0.8262936782812119 1.6101207059623472 7.479102244524319 119 129 117
0.5035458105595513 -0.5809288378593952 7.921965289837546 211 220 210
0.7931364157412585 1.5494021251429761 7.567975087504139 127 135 134
0.8497615409202077 1.7417390238442796 7.49679708341031 142 108 72
0.5703623521796659 0.0849208192460363 7.923944238320641 184 171 139
0.56337464426186 0.006732072176934034 7.929669816607656 183 171 143
0.5988646261976126 -0.2899191306449281 7.801672057080407 188 198 181
0.8256694349136189 1.5841048773460789 7.5602467995056895 89 68 70
0.5491505386281864 0.2784645665499978 8.089820326287528 115 109 74
0.5661618062209759 0.2690477898478776 8.067832662166449 122 112 88
0.8520194895726715 1.6335303393833351 7.576701578715846 65 35 34
0.600958066114421 -0.2651296155699185 7.891731148534173 178 184 161
0.5951786715995988 -0.38973167953702814 7.911975814373548 77 91 85
0.6001506572198185 0.07379098277228029 7.989158927634476 176 155 123
0.5986519234768196 -0.42635573040015895 7.916808532270417 208 223 196
0.7310270648089608 1.4582750356942071 7.924285559704827 124 135 133
0.6296303700767819 -0.04412901672442784 7.9579386907724 173 171 136
0.6266590539623182 -0.28843289180000187 7.9300466498875695 168 182 170
0.5951980840915606 0.2825427108606274 8.135506385401676 115 99 70
0.5940254628420792 -0.5751453938301359 7.987430144172501 223 228 207
0.6130064708177853 0.20683894585513274 8.083834240071894 132 118 96
0.6274269958454527 0.14517991515705023 8.05784941216724 178 163 130
0.6262704133068691 -0.5110473254792766 7.97548345492672 223 229 212
0.6522864142032132 0.08749845345496841 8.034338986221671 129 137 127
0.6820884412513272 -0.1601121820439061 7.976595329061325 166 161 146
0.6515742717167103 0.213106831561289 8.15331557605395 63 54 44
0.6555388485761459 0.2283167538179614 8.1545398130962 66 40 34
0.6406547501178529 -0.600708962121135 8.05251707339 137 145 134
0.6514141731489523 -0.5966247832854571 8.06632137378952 221 222 212
0.7095204917102002 -0.3117137391632185 8.002698509484327 174 184 167
0.6896799416303515 -0.4744311061881105 8.028196472225952 188 202 191
0.6900786652973533 0.21464198340463486 8.170495645607959 91 94 92
0.6531839733939823 -0.6517448239696044 8.136891018583587 212 222 206
0.7286389787237848 -0.14636953698371313 8.026632394846558 101 121 132
0.6753885412813129 -0.6306978986152305 8.142916114491944 155 164 173
0.7368506268601615 0.03356643585586041 8.109653161961303 184 154 129
0.7315714969382212 0.14973135333553594 8.170331790687792 121 105 93
0.72720133010368 0.17830914016178123 8.191761032887538 131 102 95
0.7003249850266386 -0.5826957021095573 8.127281320291129 132 138 137
0.7642154456108903 -0.2844521978209162 8.05391110770152 160 162 156
0.7421329694250774 0.17077272906529442 8.222318436553556 92 61 40
0.7139970530604062 0.27732859680692545 8.33117004823809 66 42 24
0.770583541126495 -0.30939148518554915 8.075618569054813 109 113 108
0.8295334148728593 1.4331124399364663 8.25977575231879 107 123 130
0.7305556752294033 -0.5775778605882971 8.164978462450362 159 175 191
0.7866897244869604 -0.10250519192063529 8.109579456784006 136 134 133
0.7622280017240668 -0.5208449331678697 8.164667681522356 124 144 149
0.6787682942508781 -0.7102043337492733 8.393444685165205 113 129 145
0.8564560384219715 1.4339774529940539 8.302056183536564 99 109 109
0.8564560384219715 1.4339774529940539 8.302056183536564 99 109 109
0.7703651539253517 0.19523268175191333 8.328037252365474 139 122 95
0.8055009621572065 0.021111176378883136 8.203693304714347 164 135 104
0.8179408401365906 -0.343004155277239 8.13164345223016 125 136 140
0.790017169862241 0.16016404880982998 8.316028919786234 174 129 102
0.790017169862241 0.16016404880982998 8.316028919786234 174 129 102
0.8883650805882745 1.4807215944935488 8.336226410778941 89 64 60
0.8315814309367808 -0.34541319750759997 8.172583274751457 115 127 139
0.8259071804474476 0.0285531970581152 8.271801354360816 72 41 38
0.813741150662245 -0.5523078900136544 8.24939173435553 119 135 148
0.8508661967069133 -0.06581336099261023 8.26832462888003 133 112 110
0.8456888826174557 -0.0024835229391309355 8.32470378857185 116 86 67
0.8680516688286897 -0.15085297843611029 8.24179799145081 119 118 120
0.862769065995031 -0.3689806403781659 8.258131437223893 64 52 64
0.8409766143691255 0.03777832276255946 8.453619851292247 141 127 105
0.8122817455182212 0.1130255317296349 8.58992216022211 35 22 24
0.7915394864339259 -0.5588638331450889 8.533757849371202 36 39 43
0.8489627228307094 -0.00024085948054013829 8.482666605059253 131 117 95
0.7833141521904148 -1.2155308659599742 8.494103400355268 200 208 201
0.8798598495750687 0.3340377598754916 8.690564162722431 45 40 41
0.8869789141839896 1.6634752958466397 8.94605471587494 255 164 81
0.8935047875226951 1.6582811147729997 8.93088588823217 253 159 83
0.8926759245182716 1.606553334241416 8.976449861872199 108 45 24
0.9114486483868516 -0.9977102547712033 8.480864424978051 74 74 80
0.9172111316441628 -0.9672022109649012 8.505710606696828 59 54 63
0.904415890103049 1.010809507381043 8.988459752017912 120 131 135
0.9526563019976073 -0.9246377096973268 8.514045169569313 49 52 66
1.0194344161344908 -1.1810639994365142 8.505461986722258 94 106 88
1.0194344161344908 -1.1810639994365142 8.505461986722258 94 106 88
-11.849443268463215 0.25210470906825105 11.255800133419111 162 135 121
-11.849443268463215 0.25210470906825105 11.255800133419111 162 135 121
-12.826355337934759 0.4248066244432989 13.47989827090807 255 253 243
-1.398128923681491 1.7449734037750713 6.742419622864464 161 120 87
-1.3378877089148793 1.5845650234469781 6.664285643810207 225 222 218
-1.2038232109988767 1.8266831042299332 6.7501142420306985 175 146 125
-1.1243984580736697 1.602332731995554 6.656235678050251 113 84 80
-1.0775903633710888 1.8505565250005984 6.7682178518370755 66 46 45
-0.8875386126916794 1.6346800035829159 6.702018891895285 102 52 46
-0.899757375867005 1.7246362253718641 6.748796916090399 150 143 123
-1.319178062479581 1.49679861056892 7.195389282607748 157 130 134
-0.754300296466711 1.6294843506622159 6.685129721752136 112 67 64
-0.7594199409670993 1.7160130335672148 6.721537345520667 125 126 110
-0.9114867839783197 1.5572059262635887 6.925766352731556 174 171 166
-0.9443685696225651 1.547268832552842 6.970382951599946 66 64 63
-0.6577533364372579 1.6667818899749733 6.688213944879615 120 75 78
-0.9139721613258565 1.5058290661040334 6.957186698934388 72 67 64
-1.160115417614321 1.4048288829555848 7.2240132815588005 251 217 147
-1.0976000701266952 1.3881478052186265 7.202635938857922 139 112 85
-0.9039394056668312 1.4534170293793753 7.007441044792067 190 195 194
-1.0749834646500227 1.396294312118941 7.196525322624963 128 119 116
-0.9417521037385953 1.396579227853182 7.086144921736616 181 190 187
-0.919117417414111 1.3679587754229918 7.1207775012073995 140 147 142
-0.8137969284103183 1.3968802403879552 7.112029562517819 96 96 78
-0.4489948703246502 1.6335339788454162 6.724027913501923 213 184 199
-0.5451481026823491 1.594905339321544 6.846983705763282 168 153 157
-0.403545124396372 1.6824611270388314 6.719929078642518 131 83 81
-0.7235229164085826 1.5398620399296532 7.113576801037308 130 122 123
-1.0169009588330058 1.3075424229169395 7.453396943323061 198 182 145
-1.0169009588330058 1.3075424229169395 7.453396943323061 198 182 145
-0.4608213000941254 1.5621496484627964 6.858245948835758 60 50 43
-0.7211290450903202 1.354601508333779 7.215748575421774 195 173 167
-0.25105223109919517 1.615887538563882 6.752348181445551 165 149 150
-0.8100349719587906 1.3109939585166317 7.440038178950749 220 206 184
-0.8100349719587906 1.3109939585166317 7.440038178950749 220 206 184
-0.15652376742966626 1.8750834580141138 6.742867968612743 73 55 62
-0.1259638584674296 1.7325608121105511 6.734752124965077 49 44 29
-0.047556251860201355 1.659641197631887 6.698475675126685 101 56 43
-0.04745022960270001 1.621668800211952 6.698943981165005 152 125 134
-0.05101850111026382 1.8314793218865524 6.744103111389101 128 90 66
-0.04937321583380355 1.8655551998681754 6.749851258234223 94 56 44
-0.037123874895161675 1.7837675447268697 6.734559721334138 109 101 88
-0.5070461961163143 1.396920542973539 7.279286433173517 54 53 49
-0.09787768192442732 1.5626802804171245 6.806369621268631 175 174 164
0.004587035198065422 1.6367354109762033 6.688946728339922 128 114 115
-0.004241323724995946 1.6239806456708337 6.705035163027471 92 62 61
-0.08113086977712541 1.5753491963687825 6.812350239892317 48 51 49
0.027901176567822164 1.6395511702854162 6.6952625815343465 68 53 51
-0.045945485816760175 1.5919359654711518 6.792054438704015 117 92 90
-0.5044301028341573 1.5137630655034435 7.38219165738421 78 83 82
-0.4410324613933379 1.3941140208157634 7.334030793316841 37 28 24
-0.08392855796745463 1.5590618808990642 6.9017404738582195 86 86 80
0.07567232358350016 1.739052506780807 6.751166501986265 148 123 91
0.10955344605192083 1.6388514976263588 6.719069763583816 174 157 161
-0.2189157964910251 1.5441681497504467 7.134332698278985 155 144 152
-0.4432373252989633 1.3539741322681913 7.443654618375011 123 120 105
-0.4537517172223515 1.329196940352426 7.505257494026931 85 62 54
0.148394393120318 1.8517070109615736 6.789836448837811 188 167 135
0.05762378844574626 1.573087706349656 6.932544757602482 169 161 144
0.045352604090363846 1.6458401618691145 6.973842193970487 137 125 143
0.2690036354709626 1.742606413112388 6.778586190774631 151 134 107
-0.6553679816844746 0.897969801243887 7.9433516474524986 63 68 53
0.17260941651723474 1.5757786771470002 6.977579476442015 73 68 69
0.35562967237580095 1.6586545835598643 6.737646686779351 154 141 155
-0.6180262212335438 0.8671606117369658 7.984431263421358 140 139 113
-0.5650504783269863 0.8747179643729517 7.9474488461484905 94 87 60
0.21270407587952952 1.5483782690220471 6.970981732905483 36 26 19
0.4171225156842867 1.657071061855736 6.722545546274826 172 153 156
0.23032882866985016 1.273244518193245 6.978207653966052 171 133 101
0.43828432114807825 1.8677451568811798 6.789461561639083 95 95 81
0.26583924725647085 1.5564466427692738 7.009525764239486 120 147 138
0.17160064654858947 1.086800153034475 7.0720885641352735 252 253 243
0.2547620659391607 1.517137646183332 7.034286832067294 61 40 25
0.4622608948047305 1.7735296030221104 6.780504276930223 172 158 130
0.17904046669719093 1.0977637148903805 7.0861718195384045 155 111 82
0.23467262634434874 1.19011990112102 7.034471410140209 197 172 146
0.23838571219380442 1.1888542210365243 7.029926710511263 197 172 146
0.5005576938328998 1.7279740017985121 6.758593916272183 87 47 42
-0.8864871409790633 0.8062865066148686 8.628016339435664 63 59 78
0.5127306281784998 1.7476292723097218 6.764601785917135 144 136 106
-0.48773654967031876 0.20317863436890463 8.00796692645256 88 74 80
-0.47517843597504067 0.12357717708606827 7.97833315169281 189 162 141
-0.32164993615792065 1.0843201466396346 7.905237308688718 26 35 25
0.3255933137442697 1.3761972455540388 7.018663289219633 145 98 84
-0.44768595100963515 0.07161993794471777 7.946997818837991 143 136 117
0.3102316205254133 1.2356517800872988 7.028744529537542 119 75 52
0.3484661357718399 1.4417324884816138 7.006278443857663 142 107 67
0.55929629287475 1.6729299934758655 6.7453893694387475 154 145 155
-0.4297653707158654 0.17450361371085668 7.962943645407429 197 169 134
0.5847613823122009 1.9744845081864588 6.765241824694785 77 39 37
0.34954961111576444 1.4566283805256162 7.049195597026284 73 34 32
0.5576546669774306 1.9057133503442394 6.830228611602595 145 121 99
0.3733998817183652 1.54891961256841 7.053321708970054 63 80 67
-0.3903617521414111 -0.43097825104345716 7.86701758996285 112 105 112
0.35675450655148205 1.301656807207395 7.058988285632821 178 180 161
-0.272919289928661 -0.16449273540747622 7.764457484377439 150 153 161
0.34567975928790357 1.1374874382216487 7.06396419399237 122 100 64
-0.23517076381951404 -0.1476862703176828 7.754040867247779 133 142 139
0.38331973470693653 1.3048680412946674 7.088860494278523 189 180 153
0.6588597274812724 1.771320792650193 6.759098098745314 157 136 108
0.38495951782635196 1.251212377709984 7.09320488795269 67 58 45
0.3576252160606664 1.0794953688305786 7.113971392951237 189 161 127
-0.3227478244947995 0.3858133851178909 8.097692888858141 135 126 112
0.4185827818418243 1.2513562085671062 7.119931462796086 72 62 45
0.4185827818418243 1.2513562085671062 7.119931462796086 72 62 45
0.3769362727971327 1.1281874243523928 7.171431941672792 147 120 99
0.44903423966774497 1.3587910942934864 7.099020558388821 195 198 176
0.43442967902569085 1.5541154806063262 7.154142113790482 60 55 57
0.43442967902569085 1.5541154806063262 7.154142113790482 60 55 57
-0.12657056791058485 -0.27874287746640053 7.712891483501903 112 124 112
-0.1250044056268565 -0.25358972730800045 7.715349683708954 113 128 114
-0.1250044056268565 -0.25358972730800045 7.715349683708954 113 128 114
-0.7261471042113996 -1.1366905043248077 8.495709733353168 77 76 92
0.7095421824797673 1.684735464733254 6.767433570254146 101 82 101
0.7095421824797673 1.684735464733254 6.767433570254146 101 82 101
-0.19006029705856736 -0.49792619987958764 7.7904719341571385 159 178 185
-0.14129190718614223 -0.41952909577889147 7.747212730411421 91 106 115
-0.14431053071913452 0.2660561670307477 7.8650600615322395 93 87 76
-0.14431053071913452 0.2660561670307477 7.8650600615322395 93 87 76
0.40014622350441004 1.1480453196900289 7.186551804364028 150 148 118
0.44430428539792394 1.288493858262731 7.143053456633491 181 180 160
0.7316682662436819 1.6837218747985283 6.77371134664567 156 130 153
0.7316682662436819 1.6837218747985283 6.77371134664567 156 130 153
0.45413401408499127 1.3152125611601522 7.141328359361861 52 47 38
-0.0732589006410817 0.0175998200657743 7.7424405493789665 112 119 116
-0.07649791521394668 -0.10373910416368474 7.730199390380731 161 167 150
-0.12565899179283263 -0.42835979705072635 7.755842074805617 169 179 186
-0.05495783340469497 -0.1611308488386006 7.718163656629284 80 82 76
-0.047606712535856015 -0.06645568250723385 7.72254203055562 114 118 106
0.48325847262638866 1.4436869058971828 7.151884244224081 90 84 55
0.48272428744616486 1.3097671625060674 7.144225245607943 189 189 165
-0.059469401394073924 -0.41387011619120856 7.731693891821756 112 129 148
-0.1486457089832078 -0.625033212965186 7.8467229711579405 111 113 123
-0.016825820415744056 0.05400524968238922 7.7536662866140516 141 141 125
0.6961409343088573 1.6438441242347472 6.914459203294489 89 75 86
0.6961409343088573 1.6438441242347472 6.914459203294489 89 75 86
0.48558988286300114 1.4462511954812394 7.217352644298229 87 77 47
-0.10675282347492203 0.9953368110522919 8.09482516888257 123 125 119
0.4901604477140092 1.522760666846599 7.252101157458033 21 13 13
-0.08478702511918988 -0.6220634123884231 7.833870969633284 171 179 202
-0.15520153512977494 -0.7123475629487902 7.931595548513641 128 128 134
-0.07091960548745418 1.009432549155702 8.07916651046437 86 80 67
0.005480937625102259 0.24404393937541613 7.837115455923694 97 117 112
0.016826574395928336 -0.4292957845669487 7.71397522226655 108 112 140
-0.2162587158470247 -0.7558120629488289 8.03061502143782 194 215 207
0.024365128708730633 -0.34876211918750993 7.728436587917716 60 53 56
0.5418371873865504 1.4426597874169658 7.2217622128994625 63 28 18
0.0713514381326042 -0.22015026238046342 7.700673050617096 161 168 161
-0.02770458836264632 0.3829202044113807 7.958210156594107 75 63 45
0.5029028635779228 1.519373380353144 7.310024757015971 34 26 26
0.0664553775438139 -0.35116165427456625 7.6965826714807335 62 55 60
0.05463113665218929 -0.3764395365037993 7.716661412917046 73 78 81
0.6762927303457441 1.6078655020761783 7.062928723390605 157 138 153
-0.14399561613924283 -0.7569017582724286 7.984735501913414 173 174 158
-0.14399561613924283 -0.7569017582724286 7.984735501913414 173 174 158
-0.12044936117909938 -0.7396128854093618 7.960325709750649 190 211 219
0.09706477475922394 -0.16297230498301243 7.718501352554943 71 67 56
0.10718053215621054 -0.13463055088172993 7.711891827355528 88 89 80
0.10718053215621054 -0.13463055088172993 7.711891827355528 88 89 80
0.006636923983400266 1.0163493461298718 8.06222453752442 125 137 131
0.1142270359480036 -0.18290212102188072 7.708353524949517 146 148 142
0.09565730731358091 0.17069325529978754 7.800970464854746 78 64 58
-0.021506067795805474 -0.6685337876992439 7.852569509578703 178 192 211
0.10452092396267389 -0.352033292681753 7.718252870333096 146 161 157
0.5554926068061096 1.4068977380498666 7.298662617944945 89 58 35
0.5414055339926898 1.4683529977683512 7.332349108353126 188 190 178
0.015436716228788071 -0.6408745740763244 7.833889741728357 183 193 210
-0.12295846167040977 -0.7904922425015896 8.031751360632928 206 215 202
0.13661019164543525 0.02918529680907541 7.757607330297844 87 79 72
0.11251036453038925 0.1795482066001999 7.826040014153569 59 54 53
0.7027605102739706 1.5988664708265647 7.111657852679606 90 78 98
0.6422594013538263 1.5905571731056918 7.216332953115072 78 68 84
0.13802341001593404 0.05997928206489453 7.777182716118326 86 89 74
0.13802341001593404 0.05997928206489453 7.777182716118326 86 89 74
0.002239977684710519 -0.6885539539038402 7.876260541209204 213 222 231
0.14078324978278975 -0.37152179290702875 7.706755299449239 93 107 101
0.14078324978278975 -0.37152179290702875 7.706755299449239 93 107 101
0.15128403592826342 -0.27516857237384346 7.714975466334944 83 91 81
0.5851913753934853 1.4020586037463014 7.2994688393650335 216 218 206
0.5303923036236942 1.5063542792910833 7.408010904725762 83 84 80
0.6040665094167217 1.395050559549798 7.273515311426065 219 219 207
0.08266423795835336 0.37367061421742664 7.9516845547462385 108 123 126
0.08266423795835336 0.37367061421742664 7.9516845547462385 108 123 126
0.12754533021981734 -0.45878844443653616 7.7469073904011765 172 195 190
-0.27080781584766594 -0.9400273683293515 8.343256787294559 117 117 103
0.5617141905779781 1.5293529749662056 7.41019674984756 88 98 86
0.6949660389445951 1.5798080656182225 7.206257372794837 135 135 151
-0.08188738514886745 1.010615981645781 8.378890621269758 17 17 11
0.8010296861657693 1.8165857977524116 7.078549747323985 129 92 58
0.18205253035828947 0.1658682006680365 7.823341967203028 142 140 122
0.18573211436818995 -0.39814206986119843 7.730629683550701 178 185 180
-0.14945318272234573 0.9276731680612584 8.527574071220698 89 86 78
-0.23121517207623754 -0.9749245582683231 8.35085943116922 109 103 104
0.5589686111470621 1.501658643201869 7.485714761561509 99 94 93
0.2120319779361468 -0.4087726808524051 7.741555463817595 202 211 201
0.21965681004682996 1.1413592093891316 7.987966044161457 95 96 56
