ply
format ascii 1.0
element vertex 666
property float x
property float y
property float z
property uchar red
property uchar green
property uchar blue
end_header
1.0016783157852223 0.18709939462289124 0.0005745395554273553 44 34 42
1.0018089203177716 0.18645966672322098 0.000583905313854881 31 35 36
1.002036510308448 0.18454824781520057 0.000611972885289734 30 40 32
1.0031420770170791 0.1790617472454294 0.0007039131927292203 99 133 142
1.0031420770170791 0.1790617472454294 0.0007039131927292203 99 133 142
1.003353030479066 0.1783264881411817 0.0007171345850443115 138 136 111
1.002140181111403 0.1839879087074235 0.0006204690031629069 41 47 45
1.0072531523122132 0.16602861735078064 0.0009757366311313514 166 227 255
1.0022482008204285 0.1813231479696056 0.0006621963678305672 102 79 47
1.0011651228202927 0.18825340201893298 0.0005572723448046318 46 41 48
1.0024068650340063 0.18072737753559734 0.0006718082958371932 110 84 69
1.001922686759385 0.18424223220515112 0.0006155803904854196 54 61 54
1.0030851137540104 0.17865286856986537 0.000709392034586172 68 90 77
1.002657420351469 0.17966359530649378 0.0006906484530577484 59 96 104
1.002657420351469 0.17966359530649378 0.0006906484530577484 59 96 104
1.0015532457835123 0.18651928535726528 0.0005816674057695707 54 47 54
1.001773718347218 0.18462287867791363 0.0006092181538382445 48 48 46
1.0015608539460432 0.18634810851240666 0.0005839769120982048 46 44 47
1.0055578998762682 0.17108834512514798 0.0008626205077096931 162 222 255
1.0030681453595023 0.17837699546033225 0.0007135483426628326 69 69 59
1.001988256199229 0.18341640364175305 0.0006276855337533863 42 56 56
1.0076222101431276 0.16420213050625806 0.0010091383205674401 164 225 254
1.0013516524786006 0.1867173291923296 0.0005777585619710584 70 66 67
1.002730283224391 0.17888540308100248 0.0007026832034577987 59 79 77
1.002181322875285 0.18022140286805524 0.0006777852522899709 80 125 105
1.0045388681253307 0.17281603255105468 0.0008198368303171001 166 227 255
1.0055675346412436 0.1706133604344811 0.0008679312015971508 151 215 253
1.0059868444567048 0.1688699739974993 0.0009038080411509468 162 222 255
1.0026072361877432 0.17890223185598564 0.0007011087853799943 67 77 68
1.000672955987928 0.18830226480762435 0.0005544752622619998 49 47 52
1.0014965692539295 0.18404505217208741 0.0006156326057531171 68 69 74
1.0052206666819048 0.17118746606639298 0.0008528483476058138 162 227 255
1.0024717809034305 0.17900775284158862 0.0006977670060756835 39 54 47
1.0015690953167298 0.1834053890481082 0.0006250996967752811 20 21 26
1.0015295888827414 0.1837246225855516 0.0006202420762905658 43 56 62
1.0009025157229217 0.18747872412806743 0.000565672540402727 69 54 59
1.0013293069433995 0.1842629436867723 0.0006115790306649057 62 62 60
1.0011480324290187 0.18617195867497424 0.0005840838373346653 61 56 62
1.0003158940155328 0.18881460576799083 0.0005466218717200237 52 51 57
1.001033898949788 0.18629696306259347 0.0005816686087094725 60 55 62
1.0018810530580944 0.18063927806814206 0.000668964614444053 55 100 97
1.0025665380619522 0.1783956951231094 0.0007083722799222328 40 44 43
1.0009762980080728 0.18554324580592665 0.0005924506543223147 25 26 31
1.0050332011897631 0.17120388932940386 0.0008494616657304028 163 227 255
1.0014198363796702 0.1831402456097747 0.0006279982223107582 71 64 56
1.0016564770631375 0.18099893653089744 0.0006612550883975031 68 125 108
1.0059961220364446 0.16823313392862832 0.000910617910077499 165 224 255
1.0050247487975679 0.17105043329226682 0.0008515343888632536 162 226 254
1.001058535090984 0.18405717446826966 0.0006127971254290325 31 32 34
1.0002673692552386 0.18816594010450644 0.0005541426589185284 59 51 62
1.0014189841159897 0.18144455599440232 0.000653167823531428 45 93 81
1.0012186403977064 0.18308520237160067 0.000627405289048162 123 138 135
1.0014897372763412 0.1810747687271231 0.000658848581922676 96 139 120
0.9995905763974464 0.1887819129402168 0.0005435787973109388 58 52 64
1.0015532133750775 0.1806892555269977 0.0006648391622165407 85 127 113
1.006080577536023 0.1669593621767653 0.0009322435655012151 165 226 254
1.0047082057216208 0.17144029119592782 0.0008403467437798418 164 225 255
1.0010969108278076 0.18295123754452297 0.0006280949355869084 100 126 127
1.0005341335269489 0.18715115708615013 0.0005679652569388382 72 57 60
1.0003469294915845 0.18759298967616944 0.0005616921188738999 58 56 61
1.0053614345525828 0.16948845004636348 0.0008790574379632475 164 223 253
1.002105073128741 0.17825160764424805 0.0007058667150790066 41 42 44
1.0005913472351025 0.18610096713903468 0.000581991592915452 58 56 59
1.0009678725786917 0.18335739631323822 0.00062167764711077 77 89 87
1.000536065614063 0.1845416770258755 0.0006032943398549648 23 27 26
1.0004681693423771 0.18624740107828403 0.0005794666013844676 53 51 56
1.004575995954765 0.17131321711804798 0.000839770715929305 164 225 254
1.0005037734676285 0.18435357247234002 0.0006054670781100409 43 51 38
1.0057152691988318 0.16813899882623626 0.0009052458746901773 163 227 255
1.0009296931305223 0.18246510652257095 0.0006341659370232887 66 108 86
1.0039302976357638 0.17261671166508766 0.000811838906918698 165 226 255
1.0009131778982956 0.18273770459414415 0.0006303615425313004 71 121 84
1.005973831738247 0.16656206482563146 0.0009357924847357441 162 225 255
1.0008138359636212 0.18286617482752382 0.0006278155304073854 48 111 84
1.0006948212330293 0.18355493726330827 0.0006173210882445977 51 79 83
1.0056239525014492 0.16772321194726297 0.0009095443795114867 161 226 255
1.0017124522811274 0.17877783164277788 0.0006938250264206679 68 64 55
1.001225061780488 0.18027530017641244 0.0006681869178494918 43 53 52
1.005094323582341 0.16929271367131005 0.0008766768544788124 166 227 255
1.0050943255106861 0.1692927138642442 0.0008766828552159295 166 227 255
1.000681185449216 0.18262150828674556 0.0006301988867709349 67 114 98
1.0006223543766963 0.1829527972530734 0.0006254419700288031 69 116 96
1.0005000522960426 0.1835572129030987 0.0006160793947457098 71 90 96
1.005503731591851 0.16802526502149992 0.0009026459826269671 165 226 255
1.003732217056021 0.17254838665698077 0.0008096973575978902 164 225 254
1.0060020395374334 0.1648942521245195 0.0009617110923730432 163 227 255
1.0001753037579701 0.18437327233466466 0.0006032367513716598 80 84 85
1.0054638693263624 0.16792605540534047 0.0009029994446149643 165 226 255
1.004438247326825 0.17081484553311205 0.0008441115312561207 167 226 255
1.004438247326825 0.17081484553311205 0.0008441115312561207 167 226 255
1.0057384038221227 0.16620425267299188 0.0009357507727292417 162 226 253
1.00395864436896 0.17188590864545916 0.0008218928424777232 165 226 255
1.0054825467576665 0.16766516768717388 0.0009072839941335952 161 224 255
1.0037726474717192 0.17226068690904678 0.0008141338684932831 160 223 254
1.0041848534452227 0.17133849553374692 0.0008326814382386593 163 223 255
1.0034554856820461 0.17233913292609884 0.0008118466492506359 165 224 255
1.0010458597102267 0.18013662039844833 0.0006685433509121676 28 43 36
1.0001244375594094 0.1857634490479098 0.000583700582256815 125 145 134
1.0004020248625205 0.1829893187063825 0.0006232299177526194 80 119 116
1.0004020248625205 0.1829893187063825 0.0006232299177526194 80 119 116
1.0045622882714915 0.17019332496547687 0.000854259882297735 164 225 254
1.004996314818307 0.1689138124440395 0.000880241917172561 165 224 254
1.0033058890134423 0.17302299688900957 0.0007971096990961492 163 224 255
1.0042659881691174 0.17075332359412662 0.0008422507771179509 164 225 254
1.004131513340195 0.1709235423631128 0.0008376318504379081 161 224 255
1.0003967995535734 0.1824270854463344 0.0006308084529849417 76 116 107
0.999845890059101 0.1867350806866347 0.0005696069673686069 58 39 41
0.9988862115772881 0.18922144019652773 0.0005355254024422587 51 48 59
1.0002374961312304 0.18280115747624295 0.0006244638854338013 67 102 104
1.0037600060263967 0.17164190653938033 0.0008217132195282526 163 227 255
1.004095208800929 0.1707261909222894 0.0008397453627189912 167 226 255
1.003956060881928 0.17105017494807523 0.0008331180556640107 166 225 255
1.0051967873904306 0.16737318086260652 0.0009054959217884974 163 227 255
1.0026543247876243 0.17345718367550633 0.0007828771832933347 159 226 255
1.0026543857553916 0.17359893449944322 0.0007805171406330217 160 225 255
1.0033525982938134 0.17200025981575645 0.0008108133364152422 166 227 255
0.9995237805423565 0.1839319562587827 0.000605011622073333 176 185 168
1.0033923086497705 0.1718101368709879 0.00081396718643306 162 225 255
1.003555656917642 0.17130293862012574 0.0008234243521011703 161 224 255
0.9998027677066671 0.18331701370583495 0.000614611618546922 202 201 180
1.0033759549065824 0.17165285067803798 0.0008154121430437772 160 225 255
1.0053170218741303 0.16493170374899355 0.0009442999698959198 162 226 254
1.004939203209613 0.16727852935175824 0.0009007855265051189 160 225 253
0.999503995530101 0.18556616705294615 0.0005824762206595937 201 223 244
0.9993872843182247 0.18659333225505725 0.000568948020706769 157 178 181
1.000801940149461 0.1781748119794523 0.0006944836138562484 167 163 154
1.003146445008114 0.17203211896453133 0.000807276221164513 164 225 254
0.9993833769360402 0.18368157649609776 0.0006075107957602921 133 132 102
0.9993814128536187 0.18569992623596682 0.0005801173735350461 204 228 252
1.003719300609656 0.1705349023367663 0.0008357078806653035 164 223 253
0.9996592892203178 0.18277044324848812 0.0006208496799440132 41 67 58
1.004236225665063 0.1687541096524103 0.0008679543599860233 164 225 255
1.002281542070334 0.17337520887764554 0.0007779549196293722 163 224 253
1.0026909381849345 0.17242813663919662 0.0007960600297621129 160 226 252
1.00403749400021 0.16907949217532478 0.0008601315798796344 160 225 253
1.0048027034550815 0.16659534647751834 0.0009069032872757217 160 224 252
1.0040958054086915 0.16877580221670135 0.0008649967589655716 161 224 255
1.0029031556510815 0.17188361730915977 0.0008055634818344518 165 226 255
1.0029031556510815 0.17188361730915977 0.0008055634818344518 165 226 255
0.9991387185266221 0.18547495194693842 0.0005814933896663386 114 149 179
1.0046072614996402 0.16705515596010898 0.0008970721395018067 164 223 255
1.0046648945534047 0.16682314262648434 0.000900771707199493 166 227 255
1.0045358068176933 0.16716022283210252 0.0008940722454540256 165 224 255
1.0028783137890767 0.1716445148587614 0.0008082646825843801 161 224 255
1.002433828491778 0.17262109378695548 0.000789658114362869 163 226 255
1.002433828491778 0.17262109378695548 0.000789658114362869 163 226 255
1.0042707437801934 0.16785095183070114 0.0008805232074187172 160 223 254
1.0042707437801934 0.16785095183070114 0.0008805232074187172 160 223 254
1.000189196652811 0.17875846151978292 0.0006801077762948999 175 166 133
1.0033768180048253 0.17016061313310737 0.0008351132163008681 165 224 254
1.0045919132409167 0.1666385582825586 0.0009023392413553527 166 225 255
1.004635763550458 0.16635730001132498 0.0009063383619566556 166 225 255
0.9982911318100345 0.18796730030546285 0.0005472082459670417 149 152 131
0.9982911318100345 0.18796730030546285 0.0005472082459670417 149 152 131
1.0021996622106983 0.17278906939058877 0.0007841500299487382 164 225 255
1.0025786084827404 0.17182676200499394 0.0008015162975285737 165 224 255
1.0040510797805597 0.16795845347423688 0.0008746507193126674 170 226 255
1.0038398252359035 0.1685551504941666 0.0008632411402753665 166 225 255
1.0038398252359035 0.1685551504941666 0.0008632411402753665 166 225 255
0.999697922048821 0.18089075430092436 0.0006458435441288933 247 255 255
0.9983705929172445 0.18736977800905888 0.0005543753291320738 54 50 64
1.0014331836765933 0.17401839712572548 0.0007597697286010355 133 133 141
1.00283038721705 0.17105509412760975 0.0008146446224740735 162 226 254
1.0018951686369855 0.17315039362629878 0.000775281512853036 158 223 255
1.004158225590755 0.1672791697195042 0.0008853578944451055 162 226 254
1.00422053641222 0.16705771433933003 0.0008892079771109879 164 228 255
1.0045220951219422 0.16586638654110203 0.0009102980725640749 166 227 255
1.0025122533989161 0.17163531121135503 0.0008028037512232329 162 226 254
0.9986746597154903 0.18527768047048968 0.0005810832560453845 100 131 175
1.0032791791231122 0.16957114147808425 0.0008407561958286361 168 227 255
1.0033172349133013 0.16940034868672688 0.0008433648362005594 163 224 255
1.0033172349133013 0.16940034868672688 0.0008433648362005594 163 224 255
1.0046601642910924 0.16487757446171228 0.000926115568681686 163 227 255
1.002928335744766 0.1703669924061013 0.0008250195609189918 165 224 255
1.0044890258680634 0.16561802435932654 0.0009127343460867906 162 228 254
1.0046086681205983 0.16500959491586686 0.0009232603556170779 162 227 255
1.003080990041113 0.1698618507843997 0.000833723903535358 162 226 254
1.003080990041113 0.1698618507843997 0.000833723903535358 162 226 254
1.0025189957104457 0.17124326075501092 0.0008077699278303043 161 224 255
1.0031662399456074 0.16956804390272007 0.0008387742610281505 163 227 254
1.0047786293874479 0.16325274633033834 0.000951540636001032 161 224 255
1.0028975676148835 0.17019373771207505 0.0008266936199689288 160 223 254
1.004113261931435 0.16667981328945944 0.0008914098052970716 162 226 254
1.005171944693405 0.161696226530345 0.0009768505862682124 159 226 255
1.0044504165710237 0.16501883623297484 0.0009194860716857509 162 223 252
1.0024992628309317 0.17100567728591495 0.0008103611540447581 163 227 255
1.0028902146767154 0.16987835315928743 0.0008306267357695832 164 225 255
1.0028902146767154 0.16987835315928743 0.0008306267357695832 164 225 255
0.9985558319828446 0.1833974034916692 0.0006046453630844977 32 41 36
0.9983285104526558 0.18542108912105815 0.0005772342309901297 59 85 112
1.0044390878572445 0.16477153308020895 0.0009221935580535841 166 227 255
1.0040959403642162 0.16613918117009144 0.0008979760172449964 160 225 253
1.0044563416654 0.1645556114929918 0.0009255789457807098 163 224 255
0.999658274588139 0.17792153472883004 0.000686824143421213 82 79 62
0.9981950659700943 0.18656204158945927 0.0005624899853459042 123 147 173
1.0033873458111013 0.1681604676808894 0.0008599045088528074 164 224 252
1.0003025315509408 0.17472850297972897 0.0007386201259961769 31 35 38
1.0039046706165586 0.1665435501949543 0.0008890763853994262 164 223 255
1.0028335725986457 0.16973040264086012 0.0008311565899512525 160 224 249
1.0009646568984436 0.173921574547097 0.0007539343335378438 116 120 121
1.002100690996566 0.17156545121352887 0.000797373485048393 162 226 253
1.0014853480451626 0.17292576071840385 0.0007723233312000597 152 193 255
1.0022394402348898 0.17117210752004497 0.0008041886390978103 158 223 251
0.9986033786522365 0.18252819761450617 0.0006155168828133294 105 118 111
1.0032618218542424 0.16835495557500432 0.0008549630085661712 161 224 255
1.002957878915119 0.16909793875417184 0.0008408511351351454 161 224 255
1.0035342883064116 0.167387365422424 0.000871674954163698 164 225 254
1.0024739293918592 0.17027901276511553 0.0008187989869009384 162 225 255
1.003410791092376 0.16772182490788914 0.0008652489376763531 163 227 255
1.0048663769784072 0.1615709281874659 0.0009701113829833203 163 224 255
0.999274585508392 0.17971552654120235 0.000657008117524992 217 225 246
0.9999933984659507 0.17501218215209494 0.0007311498903969992 209 226 216
0.9999933984659507 0.17501218215209494 0.0007311498903969992 209 226 216
1.0032135411605458 0.16812961358379852 0.0008570679474055522 162 227 255
1.0023862994489223 0.1703313754739641 0.000816333257792591 160 227 254
1.0048624775740154 0.16137573792472049 0.0009713295755671832 164 223 253
1.0037112745348253 0.16637539507161075 0.0008872129084622216 161 224 255
0.9976652836132763 0.18711050091419681 0.0005534708736269132 65 111 124
1.002928708116382 0.16855841689800266 0.0008469080888433607 165 224 254
1.001406211707243 0.1724108832832679 0.0007771974737328229 161 224 255
1.001785271058862 0.17139740479169877 0.0007948147629226072 159 226 252
1.0014061483818375 0.17241086399899033 0.0007769584396654576 160 219 253
0.9990531213124052 0.17973729472589656 0.0006549417513178069 228 242 255
1.0007589665441288 0.17358001331818998 0.0007552439007837384 188 197 180
0.9979827864656198 0.18491854018575918 0.0005810910887061902 69 71 66
0.9979397591597969 0.18409430243073935 0.0005917619617532027 119 153 188
0.9971351298035797 0.18799389922519766 0.0005412309227203333 75 65 74
0.9971351298035797 0.18799389922519766 0.0005412309227203333 75 65 74
1.0045759551440427 0.1614854802327729 0.0009648574482196944 154 223 252
1.000685013816925 0.1736835935503974 0.0007529388603945427 226 245 239
0.9978746126414658 0.18532179903238963 0.0005756981761049642 94 122 125
0.997881292376845 0.18579329475940784 0.0005695699674002309 95 124 166
0.9975144908724818 0.1867460455112325 0.0005566932413024326 63 88 142
0.99775030654727 0.1861366678699329 0.0005649351216144183 85 111 168
1.0029831924186123 0.16767796458804587 0.0008582406179544219 160 223 254
0.9989050557071536 0.17791502873381052 0.0006799501497126933 223 241 241
1.0015985230270206 0.17132666995577356 0.0007929374325120886 160 223 254
1.0030628184368748 0.1673868697974249 0.0008627768067528776 160 225 255
1.0013560838869984 0.17185301926912988 0.0007832087917139146 165 224 255
1.0034923148883046 0.1658972756501549 0.0008880465557947608 159 222 255
1.0028385352497198 0.16793160750703887 0.000852689349124421 159 222 253
1.0028385352497198 0.16793160750703887 0.000852689349124421 159 222 253
1.0038556763591147 0.1643662441549922 0.0009137988398482714 158 223 255
1.0023981410963105 0.16912986991874318 0.0008309995892505668 160 223 254
0.9976885866355106 0.1855904315389042 0.0005706819862133698 94 123 167
0.9979252322365837 0.18321566909293532 0.0006025314247195168 72 103 147
1.0045742859221243 0.16148592611453172 0.0009595044000282744 150 221 251
1.0033347521588405 0.16632278702713058 0.0008802668805206812 160 220 254
1.0033347521588405 0.16632278702713058 0.0008802668805206812 160 220 254
1.0036777495681897 0.16493790039564646 0.0009034874788306271 154 220 252
0.9976078058701042 0.18592429162348792 0.0005666029886014566 46 88 126
1.0029085295711435 0.16749735364203516 0.0008591197933329142 159 222 255
0.9984231940567546 0.1808427627846611 0.0006355213548128095 124 140 176
1.003696627558631 0.16470357843216 0.0009065418779693015 152 218 252
1.0011375443142545 0.17207115496590367 0.0007776277017847435 145 175 247
0.9987545609398337 0.17820344568521546 0.0006740189700906015 224 239 236
1.001300276796796 0.1716136466285925 0.0007851573741158292 161 224 255
1.0033876587183368 0.16574208821831732 0.0008880897362847316 154 220 254
1.0031624386390927 0.16650199911194086 0.0008750829946225183 158 221 255
0.9977036262182395 0.1838673801015909 0.0005924015283921203 67 105 150
0.9966247592259067 0.1882771134128392 0.0005357141218182316 86 75 89
1.0035539192280978 0.1650032838885139 0.0009000336542795843 157 221 255
1.0037561931576682 0.16417897922228833 0.0009135746980135209 158 221 255
1.0031836994179153 0.1662550022168484 0.0008785249487241961 155 221 255
1.0007614650210808 0.1727293395618483 0.0007645020159071984 203 213 204
1.0026344541007992 0.1679803298202966 0.0008483782424942695 156 222 254
1.0031235568447538 0.1664254523790506 0.0008753032078601955 152 220 255
1.00301270375089 0.1667399194237077 0.0008697851249197495 155 221 255
1.0036140303385441 0.1645265788848189 0.0009067857296950231 157 221 255
0.9975697592300443 0.18479204685456535 0.0005800766895384914 90 118 166
0.9974919882527241 0.18556565826999155 0.0005697832813734399 65 91 140
0.9973687621577147 0.18629099704832028 0.0005609759700967264 51 73 114
1.0013707956577755 0.17114439303296186 0.0007916180413523349 156 222 254
1.0009332839680796 0.1721228674062058 0.0007745538296025221 110 102 123
0.9978606190628212 0.18169648772016148 0.0006209972448885011 148 167 182
1.0036819730912514 0.16389847088921877 0.0009160096406965365 156 222 255
1.0036156991473286 0.16428140213121276 0.0009096780671877654 156 220 255
1.0025846083217191 0.16775854860788833 0.0008502411681050036 158 218 255
1.001188476552031 0.17143942697889425 0.0007855816770278838 160 220 255
1.0021110092332144 0.1689958944275368 0.0008281596773551685 152 217 255
0.9965536677111405 0.18806214595151696 0.0005374454501737015 80 74 86
1.0024601624327523 0.16802126427122757 0.0008442353147376593 155 217 255
1.0018560662146432 0.16960596710394918 0.0008168823950687196 155 219 255
1.0026095397658896 0.1675075903701375 0.0008534131153000019 151 216 255
1.0018794957414254 0.16943773369485898 0.0008191617250649694 152 217 255
1.0031710728675522 0.1655320474495225 0.0008860720979165975 154 218 254
1.0005334085280055 0.1726355775778539 0.000762985199735477 226 244 246
1.0025005049277016 0.16760794863108056 0.0008504369124292737 151 216 254
1.003560924292245 0.16327629879788616 0.000921558212842788 151 217 252
0.9983715695625908 0.1779952665985563 0.0006735504179760687 221 239 249
0.9964916925487293 0.18789686093145916 0.0005390065783824267 164 181 171
0.9974725444165832 0.18196741246485995 0.000614999313942216 173 182 177
1.0021779434946583 0.16843998727640624 0.0008348853575146437 150 215 253
0.999832485395484 0.17390501484116763 0.0007399428978277099 231 243 241
0.9977590902888119 0.18116290423099363 0.0006264865264692337 141 162 179
1.0018333533993775 0.16921187023290724 0.0008209430794738933 147 214 255
0.9971099173149943 0.18603349438598607 0.0005624327815005602 53 75 86
0.9973051485422245 0.1848720139957079 0.000577082722954 46 74 114
1.0014495157725227 0.1701684275124856 0.0008040949208167127 148 213 255
1.0033787869337658 0.16418265097090404 0.0009056489060005966 148 217 255
0.9972548530311968 0.18395653053810895 0.0005884243210169618 65 108 153
1.0001094096530851 0.17322603654984883 0.0007508286872256292 235 247 247
0.9972087803290564 0.1852802155726027 0.0005715971339441997 90 94 123
1.0036360765883616 0.1624066905308509 0.0009326249173152025 153 217 255
0.9972506297849784 0.1851264100298898 0.0005736391473318957 58 81 123
0.9962486293071562 0.18810932218494278 0.0005354024544858188 193 206 196
1.0001872176405235 0.17289495314255057 0.0007557466195049985 231 247 247
1.0023130309782533 0.16757336761610217 0.0008475462575397517 145 214 255
1.0023130309782533 0.16757336761610217 0.0008475462575397517 145 214 255
1.002386435146002 0.16737029312030557 0.0008510270232875337 142 213 255
1.0015650836259897 0.16959735301727294 0.0008118672335258439 140 211 255
1.0034163405257202 0.16258779007572502 0.0009268333305102252 153 218 255
1.0034163405257202 0.16258779007572502 0.0009268333305102252 153 218 255
1.001653731198588 0.16892343125901363 0.0008219491908929975 145 209 255
0.997063012433035 0.18433087750724964 0.000582591098829618 78 102 150
0.9970303317140959 0.18554132016456293 0.0005673950627219234 115 145 173
1.0029278095365923 0.1653393067171928 0.0008833468894344097 145 213 252
1.0029278095365923 0.1653393067171928 0.0008833468894344097 145 213 252
0.9962151190249987 0.18784727724457886 0.000538135253168896 196 217 210
1.0014021084109692 0.1698003350872333 0.0008078876729335116 149 213 255
1.0013129616522527 0.17006218930036293 0.0008031389091252953 140 208 253
1.0015835597927922 0.16927545312302972 0.0008163722397280365 140 211 253
1.0007913072347818 0.17130638170549545 0.0007814915509774397 149 207 255
0.9963032794513315 0.18760929913601934 0.0005409189631921883 201 222 215
0.9967681701000884 0.1863276264861436 0.0005570720964662568 54 69 92
1.0020525335657555 0.16785005237528275 0.0008398993721824538 144 213 255
1.0014324433766528 0.16955731219405668 0.0008107651861282415 137 210 253
1.0016535666710717 0.1689234136460091 0.000821335671584875 144 211 254
1.0015844176417072 0.16909050288084096 0.0008184270178936468 138 211 254
1.0015844176417072 0.16909050288084096 0.0008184270178936468 138 211 254
1.0031084608252525 0.16409073107775118 0.0009011924835227366 152 217 255
1.0021020294475487 0.16755222019355945 0.0008442087343936839 143 212 253
1.0022081792911235 0.16725149151696192 0.000849041316540712 145 214 255
0.9980335034162297 0.17788292037627523 0.0006716175096754824 160 171 157
0.9997839752385818 0.17322474088575787 0.0007466070674726161 223 243 244
0.9998537653180929 0.17309566609915203 0.000748981459499701 228 244 244
1.0037446811962982 0.16131758309617636 0.0009427754124854299 156 222 255
0.9969956107164958 0.18501980949167052 0.0005731770700246144 141 173 184
0.9969956107164958 0.18501980949167052 0.0005731770700246144 141 173 184
0.9969249290053911 0.1851942900351286 0.000570745821112437 51 61 60
0.9996195658438 0.17347818664257933 0.0007416406871311504 226 245 249
0.996967166691163 0.1835258995596288 0.000591686996018824 72 109 161
0.996967166691163 0.1835258995596288 0.000591686996018824 72 109 161
0.9966948041671656 0.18610365004314092 0.0005591761935647907 138 168 179
1.0035915043141146 0.16157532033727942 0.0009370035484348125 155 219 254
1.0015699293449958 0.16872754848376809 0.0008220254057761643 145 214 255
1.0015699293449958 0.16872754848376809 0.0008220254057761643 145 214 255
1.0030614935754087 0.1637570379001782 0.0009034228514115176 153 219 254
1.001131844351204 0.16980393472389424 0.0008032627635564667 136 210 255
1.0012479188841095 0.16949865191839333 0.0008084613831432639 141 212 255
1.001591414455656 0.168537915352103 0.0008247572864484878 145 212 254
0.9967345151777183 0.1843000792567312 0.0005807245699582863 70 106 156
0.9977201714795134 0.17752945607402237 0.0006744005904218901 99 91 89
1.0035305153043348 0.1614483385545862 0.0009371185810166444 157 221 255
1.0035305153043348 0.1614483385545862 0.0009371185810166444 157 221 255
0.9963499045471205 0.18668375061549866 0.0005512867489557411 158 184 197
0.9963499045471205 0.18668375061549866 0.0005512867489557411 158 184 197
0.9969509237365514 0.18321528303198134 0.0005941436761927323 88 116 156
1.0008232163974111 0.17035622824196797 0.0007925580468356742 137 212 252
1.0029857703166916 0.16299721775484996 0.0009124328810802903 153 221 255
0.9962183497460227 0.18688974874455067 0.0005479803241218104 74 108 153
1.001391311286624 0.16878306032280602 0.0008187624550447995 143 210 253
1.0005138958092672 0.17103682872296844 0.0007806170860012263 112 132 195
0.996744358947913 0.18506356480303734 0.0005713609543365906 157 181 193
1.0017836729777458 0.16758101235560643 0.0008383897273283228 149 212 253
0.9992951503842352 0.17358073480508154 0.0007366062716151697 228 246 250
1.0035992962480078 0.1606108440404335 0.0009462291581969061 157 221 255
0.995873070256352 0.18745771738229702 0.0005402124268788906 196 212 211
1.000881475809326 0.16991913640527379 0.0007981894099550332 144 213 255
0.999578014043318 0.1729027854858173 0.0007475963861145285 161 172 156
1.0028913548815215 0.16346517225291507 0.0009034814489139207 151 219 254
0.9983068106300129 0.17500988158970013 0.000711371892785618 228 248 249
1.0034726601534893 0.1610714683277454 0.0009383077169252588 154 218 254
1.0012329259735566 0.16885803670669872 0.0008153191932436458 149 214 255
0.9980344470611322 0.17547166779692042 0.0007034203157969033 153 158 187
1.00241803975431 0.16518958176746376 0.0008750107780289687 153 218 255
1.0017668108289495 0.1672567003594921 0.0008413208116755335 147 215 254
0.9964537473126402 0.18582998316343013 0.0005606605942080292 97 108 138
1.001700756193349 0.16739027352244273 0.0008390504507908719 150 215 255
0.9957044779576197 0.18765383705708474 0.0005375776500038015 208 218 210
1.0026602036421304 0.16415111702088914 0.0008908346332289907 153 221 255
0.9965353359031477 0.18471280075125202 0.0005741067951188358 54 80 129
0.9965353359031477 0.18471280075125202 0.0005741067951188358 54 80 129
0.996509354705592 0.18518840391669722 0.0005682581928866562 137 161 165
0.9969097519480502 0.18273569328368833 0.0005994088907116028 103 127 165
1.0003973543134335 0.17060783442941746 0.0007834588665528803 151 200 255
1.0003973543134335 0.17060783442941746 0.0007834588665528803 151 200 255
1.002175488387493 0.1655044546174063 0.000868088270878527 146 220 255
1.0002938619987243 0.17075879977511768 0.0007804642332958958 119 120 150
0.9968536967911957 0.18285951748473908 0.0005976012109460146 86 119 162
0.9964440387137996 0.18491025156621516 0.0005709743129957652 145 181 195
1.0031629962394244 0.16129994640104175 0.0009303150548463789 156 220 255
0.9963886857981447 0.1855786764993977 0.0005630057183592734 164 194 202
1.0001489627945472 0.17109644621327877 0.0007748599260595773 133 140 150
0.9994534007035755 0.1726346356512463 0.0007488740139466814 80 79 87
1.0016989739380044 0.16695523868037415 0.0008432299281888188 151 216 255
1.0014168176979565 0.1676910542826723 0.0008306886700591951 148 215 255
1.001036553670288 0.16873302434101117 0.0008136053692402898 147 215 254
0.9973865440959163 0.17831321865411337 0.000659551470864465 53 58 64
0.9962657634894378 0.1856879940671851 0.0005610891622207462 167 186 190
1.0028068407383819 0.1619540039365169 0.0009191754855202398 157 222 254
0.9976862165797316 0.17574256966686347 0.0006963325291815713 119 113 89
0.9998597824817056 0.17154702782523934 0.0007659843174719662 76 81 84
1.002574465834046 0.16350834319609428 0.0008959092218295379 156 222 255
1.0010877188415481 0.16839322814094518 0.0008177961966967503 148 213 253
1.001253475041845 0.1679443049557123 0.0008253814846911011 145 214 255
1.0022962903090133 0.16460443278670148 0.0008787039577235479 154 220 254
1.0022962903090133 0.16460443278670148 0.0008787039577235479 154 220 254
0.9962818807888835 0.18532389211896388 0.0005651712601329163 134 152 156
0.999938825890219 0.17125269414277677 0.0007700708418756796 119 124 144
1.001849159258688 0.16605952686048234 0.0008553957722440681 153 218 255
1.0000188151031861 0.17103453582519776 0.0007735720634815554 139 147 166
0.9972009044832121 0.17836543019320503 0.0006570521976914514 26 30 31
0.9965973688599973 0.1830318507737568 0.0005941535301879743 82 115 158
1.0020728447255045 0.1652358292966375 0.0008681008918286754 155 219 254
1.000031006239281 0.17097450259226246 0.0007745849232275772 140 142 167
1.000031006239281 0.17097450259226246 0.0007745849232275772 140 142 167
1.000253133955718 0.1704543797001492 0.0007831003385725581 138 173 237
0.9995320307099569 0.17212092651343694 0.0007556823440134943 45 51 63
0.9995320307099569 0.17212092651343694 0.0007556823440134943 45 51 63
1.002092962735362 0.16504071230303008 0.0008702906238136492 156 220 255
0.9962494635819905 0.184628653682015 0.0005732030603490271 56 79 123
1.0013654089093245 0.16722730429119845 0.0008346212175569197 153 215 255
1.0013654089093245 0.16722730429119845 0.0008346212175569197 153 215 255
0.9973465413149517 0.1762712213570415 0.0006862754436079638 157 165 168
1.0015461691133347 0.1665669541595772 0.0008453384460331456 156 220 255
1.0025456765246283 0.16214958282704212 0.0009120036798002487 156 223 252
0.9995756803108726 0.17179784494495645 0.0007592078103249192 99 113 113
0.9998100678406402 0.17117790996976878 0.000769386105998156 111 108 137
0.9960854447844302 0.18512929368175834 0.000566602862735971 165 193 196
0.9961257810725298 0.18489882617495246 0.0005696249155872011 150 180 190
1.000189171522153 0.17027588119183526 0.0007841032062128029 146 210 255
1.0017257883095185 0.16592174832022713 0.0008545882119451987 149 220 252
0.9962003237887042 0.18351266599052765 0.0005863734828449399 99 134 172
0.9962003237887042 0.18351266599052765 0.0005863734828449399 99 134 172
0.9962003237887042 0.18351266599052765 0.0005863734828449399 99 134 172
1.0019188769171685 0.16528746647167195 0.000864415668437611 153 221 255
0.9998441419927784 0.17105270485924756 0.0007714800196852155 114 118 129
0.9961721948158236 0.18434992506930817 0.0005759312727462918 46 81 123
0.995907256765076 0.18606758276215896 0.0005552938891530743 90 115 156
0.997791417131383 0.1748805618907692 0.0007071061409993387 87 92 95
1.0013985992022518 0.1667792615293807 0.0008400599786881805 153 219 254
0.9996178443280239 0.17145054934959789 0.0007640708077252294 111 109 123
0.9993221298712623 0.17205915539560115 0.0007533746222739792 46 60 69
1.0015898345132845 0.16610141750263516 0.0008498760897940829 155 221 255
0.9988156197430034 0.1730820715496378 0.0007361379300739901 116 122 136
0.9964824653523308 0.1827882382356491 0.0005956704831909093 86 119 164
1.0012877309151254 0.166968114285668 0.0008360856095308457 150 220 254
0.9994601318632228 0.1716878063247784 0.0007591428287741055 93 102 107
0.9991740346373289 0.17234110417521398 0.0007483644327564223 80 88 91
1.0017628847805518 0.16531826625680868 0.0008612825508326712 156 220 255
1.001341425744859 0.16662227478015032 0.0008407523919978006 155 219 255
0.9991762672740738 0.17219617858214795 0.0007498493740315255 49 53 62
1.0021295765332852 0.16369880404305193 0.0008850911116288181 157 222 254
0.9971077139248624 0.17620351119369562 0.0006846016469733496 152 163 159
0.9959871379722539 0.1842519848654896 0.000575895370096933 68 89 134
1.001436947007985 0.1661276015463903 0.0008473765239234612 156 220 255
1.0009868036867324 0.16742128094634617 0.0008267607634848375 154 219 255
1.0009868036867324 0.16742128094634617 0.0008267607634848375 154 219 255
1.0011398078617697 0.1669467843556033 0.0008340042704825013 145 218 253
1.0011398078617697 0.1669467843556033 0.0008340042704825013 145 218 253
0.9989991562313577 0.17236519521162655 0.0007460541375770385 130 142 140
0.9968153699656743 0.1781374351814615 0.0006564395090228372 14 23 20
1.0011766039864871 0.16673092029470246 0.0008363979453306159 154 220 255
0.9960647003947812 0.18337758551304137 0.0005863977354099569 89 116 169
0.9958549266769334 0.1843391468876996 0.0005740001396012857 64 87 137
1.0011701470665417 0.16661760668231765 0.0008375184989859724 153 219 254
1.0011701470665417 0.16661760668231765 0.0008375184989859724 153 219 254
1.0011701470665417 0.16661760668231765 0.0008375184989859724 153 219 254
1.000512832663822 0.1682356103982708 0.0008122475853022329 148 217 255
0.9985204443540219 0.17316897154290545 0.0007315509647618661 175 186 188
1.002057807245343 0.16329092466577516 0.0008872721720418497 163 222 254
0.9994179629430605 0.17120548441338632 0.0007634314441464584 95 94 108
1.0018823810346298 0.1640225617737869 0.0008764097062697992 159 222 253
1.001101400469853 0.166717104080176 0.0008352606774051898 154 220 255
0.9998691686192999 0.1699875660263331 0.0007825431028228989 116 116 140
1.000512312522077 0.16823557372882955 0.0008101803412953385 150 215 255
1.0005122826619306 0.16823557162431307 0.0008100616672276627 150 215 255
0.9987166691491446 0.17255881489457547 0.0007398690834331161 126 126 124
1.0006568592162703 0.16774446052577438 0.000817690831407793 154 218 255
1.0004239341580832 0.16837603106532095 0.000807557969989597 151 216 255
0.9991473917874608 0.17148521290280996 0.000757044698843008 90 96 94
1.0023118095948158 0.16074664391687804 0.0009198985879975747 157 223 255
1.0012887345482524 0.1657174109417719 0.0008488605682969926 156 222 254
0.9991877049376745 0.17136165851532498 0.0007587550793449786 96 100 109
0.9985367988937982 0.17273053862838675 0.0007369538841557193 147 159 145
0.9985367988937982 0.17273053862838675 0.0007369538841557193 147 159 145
0.9985367679071101 0.17273052674569567 0.0007368144738416985 125 133 122
1.0008476673749898 0.16699626553446087 0.0008281278333063908 146 219 254
1.0004663978594375 0.16801551217844923 0.000811956063387236 151 216 255
0.9956375256277811 0.18427380791893502 0.0005729569031922456 58 85 130
1.001826349069385 0.16333511367300615 0.0008827338195605988 157 221 255
1.000885593244115 0.16677981287244373 0.0008306318841473144 151 219 254
0.9996509951447164 0.17016143225051492 0.0007774895752887015 130 126 141
0.9992928594421691 0.17091561870238123 0.0007649261270906579 99 101 113
1.000569771074664 0.16762053070908228 0.0008174459741733512 151 214 255
0.9956266127350765 0.18424604927468427 0.0005733847455285109 54 78 122
0.9992052993453832 0.171003400971654 0.0007629278698952594 100 100 108
1.0006687101555434 0.16724775195957228 0.0008228768497759937 154 220 255
1.0006687101555434 0.16724775195957228 0.0008228768497759937 154 220 255
1.0006954426971204 0.1670568639718889 0.0008253147607635945 155 219 255
1.0002826654753305 0.16825848814290395 0.0008065500680894647 150 217 255
1.0002826654753305 0.16825848814290395 0.0008065500680894647 150 217 255
1.0006953965193428 0.16705686388814373 0.0008251329681429147 151 219 254
1.000549640682754 0.16750571880640572 0.0008179927102099381 150 218 255
0.9955597085055246 0.18408636023885988 0.000574688126760675 52 83 130
1.0001629081070003 0.16846330735790083 0.0008026407349673279 150 218 255
1.0001629081070003 0.16846330735790083 0.0008026407349673279 150 218 255
1.001446419131171 0.16431974398964136 0.0008655108153677579 155 221 255
0.9994404905631266 0.17023139324249287 0.0007739008753759224 118 121 126
1.0002632983450495 0.16807875315265003 0.000808001764486361 148 216 255
0.998194186308385 0.1729926777501651 0.0007297324213938203 149 154 147
1.0004230136467984 0.16755812657981162 0.0008157587407820162 148 216 253
0.9997536920588153 0.16932707988406548 0.0007880611803358028 145 214 255
1.0016121837802918 0.16349232052037715 0.0008772118936124656 153 222 255
0.9994941138455277 0.16985931690781964 0.0007784100312888903 127 121 131
0.9957545520874693 0.18298126259662126 0.0005881213990772392 99 135 183
0.9990582808648472 0.17087541122058839 0.0007620514629555023 120 118 131
0.9946818970611002 0.18678425826841133 0.000540982944111195 135 145 137
0.9995175045392164 0.16970605564165825 0.0007802904455563029 131 125 139
1.0006746835787932 0.1664472369766906 0.0008307726407003181 154 218 254
1.0006746835787932 0.1664472369766906 0.0008307726407003181 154 218 254
1.0014688502753972 0.163673029661648 0.0008718890179109167 156 222 255
0.995351474405012 0.18415933758677352 0.0005725832160568786 48 80 119
0.9989379897763091 0.17098854628520205 0.000759303725318571 108 111 126
0.9997870795559691 0.1688242866797632 0.0007932685185446594 147 215 252
0.9947289028326753 0.1865372617311533 0.0005435857921259655 71 71 71
0.9947289028326753 0.1865372617311533 0.0005435857921259655 71 71 71
1.0005241421330264 0.16673282750765972 0.0008254624631324758 156 220 255
1.0003500822915874 0.16715517975315164 0.0008185912799179327 155 221 255
0.9948401058044654 0.18598351009050798 0.0005498106605563006 25 38 73
1.0003844058808566 0.1669220778793161 0.0008213130042106953 152 220 255
0.9990983248276619 0.17019636054950635 0.0007693577549173573 120 119 137
0.9953320985879667 0.18342415358096575 0.0005803826888554658 88 120 171
1.0011801184718898 0.16404576519780478 0.0008630737282608727 161 221 255
1.0011801184718898 0.16404576519780478 0.0008630737282608727 161 221 255
1.0005275820481239 0.16622694806009378 0.0008302165337287494 155 219 255
0.9991349280220772 0.16995273892244891 0.0007723758302524319 135 141 163
0.9994907689037241 0.16896119882727462 0.000787922660300738 147 215 252
1.0002237623478714 0.16700328459546834 0.000817900769781162 153 217 252
0.9985892332185098 0.17120179842149913 0.0007523933076765268 84 84 96
0.9992327398762745 0.1695375270565659 0.0007779410889042855 130 127 138
0.995062291286566 0.18400593628301126 0.0005724221604702427 37 56 114
1.0002173975684912 0.16684138249483907 0.0008192838240844261 152 218 253
1.0002678439380916 0.16665627145414297 0.0008219769518930139 155 221 255
0.9991251998354892 0.16977005970434852 0.0007739710697843526 141 143 158
0.996385664085582 0.17960918375916454 0.0006298581717787786 103 95 110
1.0000581207076962 0.16711022632696548 0.0008142835641518832 154 219 255
1.0000581207076962 0.16711022632696548 0.0008142835641518832 154 219 255
0.9949683795305847 0.18421128061332248 0.0005694961438956859 36 46 55
0.9990024414766224 0.1699277799348004 0.0007701184481896302 131 133 145
1.0007622620852208 0.1648030717410851 0.0008479148102434484 156 221 253
0.9954255067693477 0.18249900468396368 0.0005908071009366072 29 51 75
0.9984437238511852 0.1710783250655049 0.0007517809058716681 117 107 115
0.9963145763489729 0.17952018429387542 0.0006303001712700202 115 111 128
1.0012031027562867 0.16262357821684817 0.0008775490928404146 157 219 255
1.0015852812326236 0.16045466723003038 0.0009054899068841729 161 221 255
1.000639410496149 0.16499626590691016 0.0008439805867360117 157 221 255
0.9986335567722056 0.17042610857204232 0.0007608330003181159 125 122 139
0.9998612974853636 0.16717382297923747 0.0008104959640769896 153 217 253
0.9948789439028961 0.18378970058210056 0.000573456304803446 47 66 106
0.9948789439028961 0.18378970058210056 0.000573456304803446 47 66 106
1.0001502781116347 0.16629033248754344 0.0008235198634411041 155 219 255
1.000589598189041 0.16482856892611014 0.0008443350811188334 156 220 255
1.000589598189041 0.16482856892611014 0.0008443350811188334 156 220 255
0.9999464934098939 0.16675431466081256 0.0008157081639736968 154 218 255
0.9984485246846587 0.17065763246726848 0.0007559213102336915 123 112 129
0.9992520067989159 0.1685677052379446 0.0007878948601399464 172 184 198
0.998011298822991 0.1716540118484524 0.0007403499601896847 112 118 134
1.0005422012289154 0.1646929381728826 0.0008449914876738154 156 222 255
0.9980910405978952 0.17133236011762168 0.0007446436200248438 124 121 132
0.9997168973653127 0.16717543264608672 0.000807850493918355 153 218 255
0.9960608519675939 0.1796728112230146 0.0006262371817588056 137 129 150
0.9960608519675939 0.1796728112230146 0.0006262371817588056 137 129 150
1.0002506384665615 0.16552518532550647 0.0008322226134298931 155 221 255
0.9954400670527142 0.17700306603909907 0.0006591059529259729 140 125 144
0.9960270286892579 0.1798108011059307 0.0006243713368929756 114 116 128
0.9997395784966059 0.1669564545731291 0.0008105602753402925 152 218 253
0.9998610279392162 0.16655330143796798 0.0008162620321617573 153 219 254
0.9983177636792726 0.17060212059918173 0.0007547613314431734 128 124 139
0.9988138283812713 0.1694558772754837 0.0007725727596279318 125 119 133
1.0008629893209449 0.16292602668563258 0.0008675365294330715 159 222 255
1.000042981183941 0.1658975723167889 0.000825287506497965 157 221 255
1.000042981183941 0.1658975723167889 0.000825287506497965 157 221 255
0.9945794148313978 0.1841108672206123 0.0005680152493996904 23 35 47
0.998348559715167 0.17042992496857584 0.0007570278393392463 140 122 144
0.9987049871471256 0.16953797111284352 0.000770439717556106 127 121 135
0.9991351611801472 0.16836837269387 0.0007879439162281471 131 137 127
0.9984767986921852 0.17003452394207308 0.0007625597403376072 134 132 153
0.9959681021638894 0.179574155398451 0.0006264903995186107 146 138 161
0.9976525522054313 0.17190094157694352 0.0007342857638639239 111 98 115
1.000819392771847 0.16279622744137529 0.0008676490618444343 156 222 254
0.9981147524714447 0.17088749999867206 0.0007492131420128841 127 122 142
0.9997770429663381 0.1664096119147444 0.0008163524886569375 150 220 254
0.9997770429663381 0.1664096119147444 0.0008163524886569375 150 220 254
0.9994627614466443 0.16729075636569715 0.0008030792283855013 153 218 255
0.9996002990402566 0.16687866331792897 0.0008091096829813317 154 218 254
0.9941330859993569 0.18577093331269398 0.0005476991323340636 93 91 92
0.9999491990082946 0.16577644950900908 0.0008249376802122388 154 220 255
0.9999491990082946 0.16577644950900908 0.0008249376802122388 154 220 255
0.9953649329805222 0.18131631692199293 0.0006025717354711603 95 94 100
0.9953649329805222 0.18131631692199293 0.0006025717354711603 95 94 100
0.999860132469186 0.16592767889880072 0.00082200197353635 155 219 254
0.9960118193871726 0.17908463388625667 0.0006321939495202674 130 115 146
0.9994887941387257 0.16701236557204957 0.000805975481396731 151 219 254
0.9958260749118663 0.17964432000429803 0.0006244984481281513 131 126 156
0.9945689153292016 0.18347232916884745 0.0005747170318657949 32 34 47
0.9958976124170086 0.17935667411986042 0.0006281379467639672 118 116 138
0.9941273534450021 0.18554614634189454 0.0005498706968591894 100 110 109
0.999446057958627 0.16700248334632709 0.0008054685955241645 150 220 254
0.9997018271388152 0.16626840829433545 0.0008160742563254338 155 221 255
0.9960133731477862 0.17868222489400867 0.0006365685597538457 124 115 136
0.9960133731477862 0.17868222489400867 0.0006365685597538457 124 115 136
0.9956049604854892 0.18018033868093974 0.0006166754033776774 97 93 108
0.9955691768624882 0.180321538321429 0.0006146853460922722 95 91 108
0.9997976139287157 0.16577734033546718 0.0008222542438805784 155 221 253
0.9995307051110904 0.16650784504168603 0.0008108685406283812 155 219 255
0.9957364154620466 0.17950942033428338 0.00062512393633692 113 114 132
1.0004729437207174 0.16319762552714662 0.0008572878760200307 154 220 254
0.9995559516303528 0.1663581498166334 0.0008130725314601509 151 219 254
0.9995559516303528 0.1663581498166334 0.0008130725314601509 151 219 254
0.9990044899169571 0.1677529127283019 0.0007917974545294049 155 217 254
0.9995570214562646 0.16614881733964737 0.0008150650303948158 157 220 255
0.9960556617662789 0.174167558173628 0.000694762145617672 102 107 127
0.9984999677595592 0.16913101392089824 0.0007711196392973058 108 107 121
0.995684161532348 0.1793853781548025 0.0006259906228406188 120 114 140
0.9958643649179939 0.17872985071117192 0.0006347114631443584 135 137 160
0.9955907163819854 0.17963623075857663 0.0006225308287475182 109 102 118
0.9941748654016869 0.18492300762494557 0.0005563598225994882 94 87 95
0.9957273844597918 0.17917706024805868 0.000628587457877929 123 125 138
0.9991292758753948 0.16713341498546647 0.0007994666668657175 155 221 255
1.0002442417742392 0.16336388150018635 0.0008520482975917753 159 222 253
0.9957830621648642 0.178598857440423 0.0006354699714098164 127 126 142
0.9989446549022848 0.1674464108199421 0.0007936316263415336 159 219 255
0.9989694477427592 0.167361197409288 0.0007945210040195967 156 219 254
0.9955090446910454 0.17948200713448564 0.0006234837077627899 131 139 142
0.9993168974542296 0.16629890714073386 0.0008099940418453774 156 220 255
0.997502368834951 0.17102888877692013 0.0007401694653617878 135 132 151
0.9994683292369727 0.16585484082745644 0.0008161144024845417 158 221 254
0.9958865545759304 0.17408598517031793 0.0006937105037492736 130 138 157
1.0001983762050926 0.16320281843885534 0.0008522695832196102 158 221 254
0.9937073012898978 0.18557714184888818 0.0005471128702345673 113 100 117
0.9940622539870079 0.18366695485057344 0.0005693320846502085 55 67 81
0.9993122298729961 0.1661496021040784 0.0008109818361274528 157 221 255
0.997598388279193 0.17059107308031518 0.0007454249249230986 155 147 168
0.9955236328624392 0.17910479485369632 0.0006275721034372161 126 150 162
0.9953283322366152 0.17955696462329027 0.0006211134792794476 92 98 112
0.9953283322366152 0.17955696462329027 0.0006211134792794476 92 98 112
0.993083476406659 0.18705502705815186 0.0005294453818990637 141 124 140
0.9952462422610174 0.17980717774634974 0.0006178048111507565 92 95 100
0.9995991278938696 0.16497836290753856 0.0008261056869742758 156 222 254
0.9956142010122129 0.17850415640780481 0.0006349395327675102 129 147 161
0.9956142301245857 0.17850418440894836 0.0006351022618682624 123 141 155
0.9981397951021901 0.16887013885414576 0.0007697006044289496 100 94 106
0.9991015642007377 0.1662855174683757 0.0008066455063309143 157 222 254
0.9951246552619885 0.17996426969796495 0.0006152304954927287 107 122 129
1.000445608058656 0.16033967910132133 0.0008841381771542677 155 221 253
0.9952659604557881 0.1793842489035468 0.0006223534465778457 99 111 123
0.9956464356612718 0.17417698865709733 0.0006896513554149645 92 92 94
0.9980138153380517 0.16913365746418224 0.0007645057680442449 139 142 151
0.9939273353660121 0.1832758887647195 0.0005724850037340526 98 103 123
0.9949265934472109 0.1803447410522173 0.0006093523499187191 102 113 105
0.9969650113020203 0.17147502125252126 0.0007293257335916852 136 133 152
0.9969650113020203 0.17147502125252126 0.0007293257335916852 136 133 152
0.99912122045738 0.16590612571418706 0.0008100051907236528 160 223 255
0.9997390280439237 0.16379356735475759 0.0008387961037456943 159 222 255
